583866 7225447 959.89001
583866 7225447 959.94
583866.06 7225447 959.94
583866.12 7225446.5 960.46997
583866.12 7225446.5 960.45001
583866.19 7225446.5 960.53998
583866.19 7225446.5 960.48999
583866.25 7225446 960.52002
583866.31 7225446 960.51001
583866.31 7225446 960.53003
583866.44 7225445.5 960.53998
583866.44 7225445.5 960.56
583866.5 7225445 960.57001
583866.56 7225445 960.56
583866.56 7225445 960.58002
583866.56 7225445 960.56
583866.62 7225444.5 960.59998
583866.69 7225444.5 960.60999
583866.69 7225444 960.62
583866.69 7225444 960.56
583866.75 7225444 960.52002
583866.81 7225444 960.63
583866.81 7225443.5 960.56
583866.81 7225443.5 960.53003
583866.88 7225443.5 960.57001
583866.94 7225443.5 960.69
583866.94 7225443 960.62
583867.06 7225443 960.53003
583867.06 7225442.5 960.72998
583867.06 7225442.5 960.65997
583867.06 7225442.5 960.64001
583867.19 7225442.5 960.59003
583867.25 7225442 960.65997
583867.25 7225442 960.76001
583867.31 7225442 960.78998
583867.31 7225441.5 960.54999
583867.31 7225441.5 960.53003
583867.38 7225441.5 960.52002
583867.44 7225441.5 960.64001
583867.5 7225441 960.64001
583867.5 7225441 960.63
583867.5 7225441 960.60999
583867.62 7225440.5 960.72998
583867.56 7225440.5 960.69
583867.69 7225440.5 960.70001
583867.75 7225440 960.75
583867.75 7225440 960.67999
583867.88 7225439.5 960.70001
583867.88 7225439.5 960.69
583867.94 7225439 960.71997
583868 7225439 960.78003
583868 7225439 960.76001
583868 7225439 960.78998
583868.06 7225438.5 960.82001
583868.06 7225438.5 960.79999
583868.12 7225438.5 960.71002
583868.12 7225438.5 960.59998
583868.19 7225438 960.65997
583868.25 7225438 960.60999
583868.31 7225437.5 960.60999
583868.56 7225436.5 960.67999
583868.56 7225436.5 960.65997
583873.06 7225418.5 961.16998
583873.12 7225418 961.13
583874.62 7225412 960.62
583874.69 7225411.5 960.70001
583874.75 7225411 960.70001
583874.81 7225411 960.71002
583874.81 7225411 960.69
583874.88 7225411 960.66998
583874.88 7225411 960.64001
583875.06 7225410.5 964.71002
583875.06 7225410 964.87
583875.12 7225410 964.97998
583875.12 7225410 964.95001
583875.19 7225410 965.04999
583875.25 7225409.5 965.07001
583875.25 7225409.5 965.21002
583875.31 7225409.5 965.31
583875.38 7225409 965.39001
583875.44 7225409 965.48999
583875.44 7225409 965.46997
583875.44 7225409 965.59003
583875.44 7225409 965.54999
583875.5 7225408.5 965.67999
583875.56 7225408.5 965.78003
583875.56 7225408.5 965.76001
583875.62 7225408 965.90002
583875.62 7225408 965.96997
583875.69 7225408 966.07001
583875.81 7225407.5 970.71997
583875.81 7225407.5 970.84998
583875.81 7225407.5 970.82001
583875.88 7225407 970.96002
583876 7225407 971.09003
583876 7225407 971.06
583875.94 7225407 971.21002
583875.94 7225407 971.19
583876.06 7225406.5 971.27002
583876.06 7225406.5 971.44
583876.12 7225406 971.57001
583876.12 7225406 971.70001
583876.25 7225406 971.75
583876.25 7225405.5 971.88
583876.31 7225405.5 972.01001
583876.38 7225405.5 972.14001
583876.38 7225405 972.27002
583876.44 7225405 972.37
583876.44 7225405 972.34998
583876.5 7225405 972.5
583876.5 7225405 972.47998
583876.5 7225404.5 972.59998
583876.5 7225404.5 972.58002
583876.56 7225404.5 972.75
583876.62 7225404.5 972.84003
583876.62 7225404 972.96997
583876.69 7225404 973.07001
583876.75 7225404 973.17999
583876.75 7225403.5 973.28003
583876.81 7225403.5 973.46002
583876.88 7225403 973.53998
583876.94 7225403 973.66998
583877 7225402.5 973.77002
583877 7225402.5 973.88
583877.06 7225402.5 974.04999
583877.12 7225402 974.16998
583877.12 7225402 974.28003
583877.19 7225402 974.40997
583877.25 7225401.5 974.53003
583877.25 7225401.5 974.62
583877.38 7225401 974.75
583877.38 7225401 974.84998
583877.38 7225401 974.98999
583877.5 7225400.5 975.15002
583877.5 7225400.5 975.13
583877.5 7225400.5 975.25
583877.56 7225400.5 975.41998
583877.62 7225400 975.44
583877.62 7225400 975.33002
583877.69 7225400 975.21997
583877.75 7225399.5 975.13
583877.75 7225399.5 975.09998
583877.75 7225399.5 974.96997
583877.81 7225399.5 974.85999
583877.88 7225399 974.71997
583877.88 7225399 974.59003
583878 7225398.5 974.46002
583877.94 7225398.5 974.34998
583877.94 7225398.5 974.32001
583878.06 7225398.5 974.28003
583878.06 7225398 974.15002
583878.12 7225398 974.03998
583878.12 7225398 973.89001
583878.19 7225397.5 973.79999
583878.19 7225397.5 973.77002
583878.25 7225397.5 973.67999
583878.25 7225397.5 973.54999
583878.31 7225397 973.42999
583878.38 7225397 973.34003
583878.38 7225397 973.32001
583878.38 7225397 973.15002
583878.5 7225396.5 973.07001
583878.5 7225396.5 972.96002
583878.5 7225396.5 972.85999
583878.62 7225396 972.71997
583878.62 7225396 972.59998
583878.69 7225395.5 972.47998
583878.75 7225395.5 972.33002
583878.75 7225395.5 972.22998
583878.81 7225395 972.14001
583878.81 7225395 972.01001
583878.88 7225395 971.84998
583878.94 7225394.5 971.73999
583878.94 7225394.5 971.65002
583878.94 7225394.5 971.62
583879 7225394 971.54999
583879 7225394 971.40002
583879.06 7225394 971.31
583879.19 7225393.5 971.15002
583879.12 7225393.5 971.06
583879.25 7225393 970.96002
583879.25 7225393 970.87
583879.25 7225393 970.82001
583879.31 7225393 970.73999
583879.31 7225392.5 966.06
583879.31 7225392.5 966.02002
583879.38 7225392.5 965.92999
583879.44 7225392 965.81
583879.44 7225392 965.76001
583879.5 7225392 965.59998
583879.56 7225391.5 965.60999
583879.56 7225391.5 965.58002
583879.56 7225391.5 965.52002
583879.56 7225391.5 965.48999
583879.62 7225391.5 965.53998
583879.69 7225391 965.59003
583879.69 7225391 965.53003
583879.75 7225391 965.60999
583879.81 7225390.5 965.96997
583879.88 7225390.5 966.21997
583879.94 7225390 966.22998
583879.94 7225390 966.04999
583879.94 7225390 961.20001
583880 7225389.5 961.15997
583880 7225389.5 961.17999
583880.06 7225389.5 961.21997
583880.12 7225389 961.21002
583880.19 7225388.5 961.16998
583880.19 7225389 961.19
583880.25 7225388.5 961.29999
583880.31 7225388 961.66998
583880.38 7225388 961.78998
583880.44 7225388 961.79999
583880.44 7225387.5 961.70001
583880.44 7225387.5 958.97998
583880.5 7225387.5 958.96002
583880.5 7225387.5 958.92999
583880.56 7225387 958.90002
583880.56 7225387 958.85999
583880.56 7225387 958.96002
583880.56 7225387 958.94
583880.62 7225387 958.98999
583880.62 7225387 958.96002
583880.69 7225386.5 959
583880.69 7225386.5 958.97998
583880.75 7225386.5 958.98999
583880.75 7225386.5 958.96997
583880.81 7225386 959.06
583880.88 7225386 959.12
583880.94 7225385.5 959.06
583880.94 7225385.5 959.09998
583881 7225385.5 959.09003
583881 7225385.5 959.07001
583881.06 7225385 959.08002
583881.06 7225385 959.12
583881.12 7225385 959.06
583881.19 7225384.5 959.08002
583881.19 7225384.5 959.01001
583881.25 7225384.5 958.98999
583881.25 7225384.5 958.94
583881.31 7225384 958.95001
583881.31 7225384 958.97998
583881.31 7225384 958.94
583881.44 7225383.5 958.97998
583881.44 7225383.5 958.96002
583881.44 7225383.5 958.95001
583881.56 7225383 958.91998
583881.56 7225383 958.90002
583881.56 7225383 958.94
583881.62 7225382.5 958.90002
583881.69 7225382.5 958.87
583881.69 7225382.5 958.84998
583881.75 7225382 958.82001
583881.75 7225382 958.85999
583881.81 7225382 958.82001
583881.88 7225381.5 958.78998
583881.88 7225381.5 958.79999
583881.94 7225381.5 958.81
583882.38 7225379.5 958.78998
583882.44 7225379.5 958.78998
583882.62 7225378.5 958.89001
583882.62 7225378.5 958.87
583882.75 7225378 958.82001
583882.88 7225377.5 958.79999
583882.94 7225377 958.78998
583883.81 7225373.5 958.83002
583883.88 7225373.5 958.84998
583885.19 7225368 959.96002
583885.25 7225368 960.47998
583885.25 7225368 960.45001
583885.25 7225367.5 960.85999
583885.25 7225367.5 960.84003
583885.31 7225367.5 961.15002
583885.31 7225367.5 961.12
583885.38 7225367.5 961.15002
583888.25 7225355 958.20001
583888.75 7225353 962.34003
583888.75 7225353 962.33002
583888.81 7225352.5 962.34003
583888.81 7225352.5 962.32001
583888.88 7225352.5 962.42999
583888.88 7225352.5 962.53998
583888.88 7225352.5 962.52002
583888.94 7225352 962.53998
583889 7225352 962.60999
583889 7225352 962.66998
583889 7225352 962.60999
583889.06 7225351.5 962.73999
583889.12 7225351.5 962.78998
583889.12 7225351.5 962.90002
583889.19 7225351 962.90997
583889.25 7225351 963.01001
583889.25 7225351 962.96997
583889.31 7225350.5 963.08002
583889.31 7225350.5 963.08002
583889.38 7225350.5 963.17999
583889.44 7225350 963.26001
583889.5 7225350 963.26001
583889.5 7225350 963.22998
583889.56 7225349.5 963.26001
583889.56 7225349.5 963.27002
583889.62 7225349.5 963.28003
583889.69 7225349 963.27002
583889.69 7225349 963.27002
583889.81 7225348.5 963.27002
583889.81 7225348.5 963.21997
583889.81 7225348.5 963.26001
583889.81 7225348.5 963.23999
583889.88 7225348.5 963.23999
583889.94 7225348 963.20001
583889.94 7225348 963.29999
583889.94 7225348 963.27002
583890 7225348 963.23999
583890 7225347.5 963.25
583890.06 7225347.5 963.23999
583890.12 7225347 963.21997
583890.12 7225347 963.25
583890.19 7225347 963.23999
583890.19 7225347 963.21997
583890.25 7225346.5 963.21997
583890.25 7225346.5 963.19
583890.25 7225346.5 963.21997
583890.25 7225346.5 963.19
583890.38 7225346 963.23999
583890.38 7225346 963.26001
583890.38 7225346 963.23999
583890.44 7225346 963.25
583890.44 7225346 963.20001
583890.5 7225345.5 963.21002
583890.5 7225345.5 963.20001
583890.56 7225345.5 963.20001
583890.62 7225345 963.20001
583890.62 7225345 963.21002
583890.69 7225345 963.23999
583890.69 7225345 963.21997
583890.75 7225344.5 963.21997
583890.75 7225344.5 963.21997
583890.81 7225344.5 963.17999
583890.81 7225344 963.20001
583890.88 7225344 963.16998
583891 7225343.5 963.20001
583891 7225343.5 963.17999
583891 7225343.5 963.15997
583891.06 7225343.5 963.16998
583891.06 7225343 963.21002
583891.06 7225343 963.16998
583891.12 7225343 963.15002
583891.19 7225343 963.21002
583891.19 7225342.5 963.21002
583891.25 7225342.5 963.20001
583891.25 7225342.5 963.17999
583891.31 7225342.5 963.21002
583891.31 7225342 963.15997
583891.38 7225342 963.04999
583891.44 7225341.5 963.02002
583891.44 7225341.5 963
583891.44 7225341.5 962.94
583891.5 7225341.5 962.84003
583891.56 7225341 962.77002
583891.56 7225341 962.73999
583891.62 7225341 962.73999
583891.62 7225340.5 962.65997
583891.69 7225340.5 962.59998
583891.75 7225340.5 962.52002
583891.75 7225340 962.45001
583891.81 7225340 962.40997
583891.81 7225340 962.39001
583891.88 7225340 962.37
583891.88 7225339.5 962.35999
583891.88 7225339.5 962.34003
583891.94 7225339.5 962.27002
583892 7225339 957.91998
583892.06 7225338.5 958.01001
583892.06 7225338.5 957.91998
583892.06 7225338.5 957.90002
583892.12 7225338.5 957.70001
583892.19 7225338 957.62
583892.19 7225338 957.65997
583892.25 7225338 957.78003
583892.31 7225337.5 957.40997
583892.31 7225337.5 957.39001
583892.5 7225337 957.59003
583892.5 7225337 957.87
583892.5 7225337 957.82001
583892.56 7225336.5 957.91998
583892.56 7225336.5 957.89001
583892.56 7225336.5 957.87
583892.62 7225336.5 957.94
583892.69 7225336 958.03003
583892.69 7225336 958.01001
583892.69 7225336 958.06
583892.81 7225335.5 958.26001
583892.81 7225335.5 958.25
583892.88 7225335.5 958.28998
583892.94 7225335 958.28003
583892.94 7225335 958.22998
583892.94 7225335 958.25
583892.94 7225335 958.21002
583893 7225334.5 958.21002
583893.06 7225334.5 958.16998
583893.06 7225334.5 958.13
583893.12 7225334 957.95001
583893.19 7225334 957.92999
583893.19 7225334 957.75
583893.25 7225333.5 957.73999
583893.31 7225333.5 957.72998
583893.31 7225333.5 957.76001
583893.38 7225333 957.70001
583893.44 7225333 957.59998
583893.5 7225332.5 957.47998
583896 7225322 959.41998
583896.06 7225322 960.08002
583896.06 7225322 960.06
583896.12 7225321.5 960.15002
583896.12 7225321.5 960.15997
583896.19 7225321 957.85999
583896.25 7225321 957.83002
583896.31 7225320.5 957.81
583896.31 7225320.5 957.70001
583896.31 7225320.5 957.66998
583896.31 7225320.5 957.59998
583896.44 7225320 957.5
583896.5 7225320 957.46002
583896.5 7225320 957.52002
583896.56 7225319.5 957.53003
583896.56 7225319.5 957.54999
583896.38 7225319.5 957.57001
583896.38 7225319.5 957.53998
583896.31 7225319.5 957.48999
583896.25 7225320 957.46002
583896.25 7225320 957.51001
583896.25 7225320 957.47998
583896.19 7225320.5 957.53998
583896.12 7225320.5 957.53003
583896.06 7225320.5 957.57001
583896.06 7225321 957.59003
583896 7225321 957.65997
583895.94 7225321 957.81
583895.81 7225321.5 960.09003
583895.81 7225322 960.12
583895.75 7225322 959.90997
583895.75 7225322 958.34998
583895.75 7225322 958.32001
583893 7225332.5 957.25
583893 7225332.5 957.53998
583892.94 7225333 957.58002
583892.88 7225333 957.53003
583892.75 7225333.5 957.70001
583892.75 7225333.5 957.72998
583892.69 7225333.5 957.75
583892.69 7225333.5 957.71997
583892.62 7225334 957.81
583892.56 7225334 958.12
583892.56 7225334 958.09998
583892.5 7225334.5 958.14001
583892.5 7225334.5 958.21002
583892.44 7225334.5 958.23999
583892.38 7225335 958.22998
583892.31 7225335 958.20001
583892.31 7225335 958.21997
583892.25 7225335.5 958.23999
583892.19 7225335.5 958.15997
583892.19 7225335.5 958.14001
583892.19 7225335.5 958.19
583892.19 7225335.5 958.15002
583892.12 7225336 958
583892.06 7225336 957.89001
583892 7225336 957.88
583892 7225336.5 957.90002
583892 7225336.5 957.87
583891.94 7225336.5 957.85999
583891.88 7225337 957.46997
583891.62 7225337.5 957.35999
583891.56 7225338 957.34003
583891.56 7225338 957.32001
583891.5 7225338 957.53003
583891.44 7225338.5 957.72998
583891.44 7225338.5 957.71002
583891.38 7225339 957.83002
583891.38 7225339 958.22998
583891.38 7225339 958.21002
583891.25 7225339.5 962.28003
583891.25 7225339.5 962.34998
583891.19 7225339.5 962.34003
583891.12 7225340 962.40002
583891.06 7225340 962.47998
583891.06 7225340 962.57001
583891 7225340.5 962.62
583890.94 7225340.5 962.73999
583890.94 7225340.5 962.75
583890.81 7225341 962.82001
583890.75 7225341.5 962.85999
583890.75 7225341.5 962.84998
583890.69 7225341.5 962.83002
583890.62 7225342 962.89001
583890.62 7225342 962.84003
583890.62 7225342 962.87
583890.56 7225342 962.88
583890.5 7225342.5 962.87
583890.44 7225342.5 962.85999
583890.38 7225343 962.85999
583890.38 7225343 962.87
583890.31 7225343 962.84998
583890.25 7225343.5 962.85999
583890.25 7225343.5 962.84003
583890.19 7225343.5 962.85999
583890.19 7225343.5 962.84003
583890.19 7225343.5 962.84003
583890.12 7225344 962.84998
583890.06 7225344 962.87
583890 7225344.5 962.84998
583890 7225344.5 962.89001
583889.94 7225344.5 962.85999
583889.88 7225344.5 962.89001
583889.88 7225344.5 962.87
583889.81 7225345 962.87
583889.75 7225345 962.87
583889.75 7225345.5 962.89001
583889.69 7225345.5 962.90997
583889.69 7225345.5 962.84998
583889.62 7225345.5 962.87
583889.56 7225346 962.85999
583889.56 7225346 962.84003
583889.56 7225346 962.90002
583889.5 7225346 962.84998
583889.44 7225346.5 962.90997
583889.44 7225346.5 962.89001
583889.38 7225346.5 962.88
583889.38 7225346.5 962.83002
583889.31 7225347 962.87
583889.25 7225347 962.90002
583889.19 7225347.5 962.84998
583889.12 7225347.5 962.90997
583889.12 7225347.5 962.90997
583889.12 7225347.5 962.89001
583889.06 7225348 962.88
583889 7225348 962.90002
583889 7225348 962.87
583888.94 7225348 962.88
583888.94 7225348.5 962.90997
583888.88 7225348.5 962.90002
583888.81 7225349 962.90997
583888.81 7225349 962.90997
583888.81 7225349 962.87
583888.75 7225349 962.90002
583888.69 7225349.5 962.88
583888.69 7225349 962.85999
583888.62 7225349.5 962.90997
583888.62 7225349.5 962.88
583888.56 7225350 962.88
583888.56 7225350 962.85999
583888.5 7225350 962.88
583888.5 7225350 962.83002
583888.5 7225350 962.90002
583888.44 7225350.5 962.90997
583888.38 7225350.5 962.88
583888.31 7225350.5 962.88
583888.31 7225351 962.96002
583888.31 7225351 962.92999
583888.25 7225351 962.92999
583888.25 7225351 962.90002
583888.19 7225351 962.83002
583888.19 7225351 962.81
583888.19 7225351.5 962.82001
583888.19 7225351.5 962.77002
583888.12 7225351.5 962.71002
583888.06 7225351.5 962.65002
583888 7225352 962.53998
583888 7225352 962.51001
583887.94 7225352 962.41998
583887.88 7225352.5 962.35999
583887.81 7225352.5 962.34003
583887.75 7225353 962.28003
583887.31 7225354.5 958.16998
583887.25 7225354.5 958.22998
583884.06 7225367 961.03003
583884 7225367 961.04999
583884 7225367 961.03003
583884 7225367 960.97998
583882.44 7225373 958.84003
583880 7225382.5 958.83002
583880 7225382.5 958.83002
583879.88 7225382.5 958.90002
583879.88 7225383 958.92999
583879.88 7225383 958.88
583879.81 7225383 958.84003
583879.5 7225384 958.78998
583879.25 7225385 958.78998
583879.25 7225385 958.84998
583879.19 7225385.5 958.83002
583879.12 7225385.5 958.78998
583879.06 7225386 958.78998
583879 7225386 958.83002
583878.94 7225386.5 958.87
583878.94 7225386.5 958.91998
583878.81 7225387 958.85999
583878.81 7225387 958.96002
583878.75 7225387 959
583878.75 7225387.5 961.82001
583878.69 7225387.5 961.77002
583878.62 7225387.5 961.75
583878.62 7225387.5 961.71997
583878.56 7225388 961.5
583878.56 7225388 961.46997
583878.56 7225388 961.25
583878.56 7225388 961.21997
583878.5 7225388 961.15002
583878.44 7225388.5 961.21002
583878.44 7225388.5 967.48999
583878.38 7225389 967.66998
583878.38 7225389 967.65997
583878.31 7225389 967.65997
583878.25 7225389.5 967.69
583878.25 7225389.5 967.59998
583878.12 7225389.5 965.69
583878.12 7225389.5 965.65002
583878.12 7225390 965.79999
583878.06 7225390 965.89001
583878 7225390 965.97998
583878 7225390 965.96002
583878 7225390.5 966.15997
583877.94 7225390.5 966.25
583877.88 7225390.5 966.40997
583877.88 7225391 966.54999
583877.81 7225391 966.71997
583877.81 7225391 966.69
583877.75 7225391 966.88
583877.75 7225391.5 967.01001
583877.75 7225391.5 966.96002
583877.69 7225391.5 967.09003
583877.56 7225392 967.25
583877.56 7225392 967.27002
583877.56 7225392 971.78003
583877.5 7225392.5 971.76001
583877.5 7225392.5 971.84998
583877.44 7225393 971.83002
583877.38 7225393 971.83002
583877.31 7225393 971.87
583877.31 7225393.5 971.95001
583877.25 7225393.5 972.03003
583877.19 7225393.5 972.15002
583877.12 7225394 972.37
583877.06 7225394 972.51001
583877 7225394.5 967.82001
583877 7225394.5 972.72998
583876.94 7225394.5 972.82001
583876.94 7225395 972.96002
583876.88 7225395 973.10999
583876.81 7225395 973.19
583876.75 7225395.5 973.27002
583876.62 7225396 973
583876.62 7225396 972.98999
583876.56 7225396 973.13
583876.5 7225396.5 973.27002
583876.5 7225396.5 973.39001
583876.44 7225396.5 973.48999
583876.38 7225397 973.63
583876.38 7225397 973.73999
583876.31 7225397 973.83002
583876.25 7225397.5 973.98999
583876.25 7225397.5 974.10999
583876.19 7225397.5 974.21002
583876.12 7225398 974.35999
583876.06 7225398 974.45001
583876.06 7225398 974.42999
583876.06 7225398 974.52002
583876 7225398.5 974.66998
583875.94 7225398.5 974.79999
583875.88 7225399 974.95001
583875.81 7225399 975.08002
583875.81 7225399 975.21002
583875.75 7225399.5 975.31
583875.69 7225399.5 975.44
583875.69 7225399.5 975.5
583875.62 7225400 975.34003
583875.56 7225400 975.21997
583875.5 7225400 975.09003
583875.5 7225400.5 974.96997
583875.44 7225400.5 974.85999
583875.38 7225401 974.75
583875.38 7225401 974.72998
583875.31 7225401 974.60999
583875.25 7225401 974.47998
583875.19 7225401.5 974.34003
583875.19 7225401.5 974.22998
583875.12 7225401.5 974.14001
583875.06 7225402 973.97998
583875 7225402 973.84998
583875 7225402 973.75
583874.94 7225402.5 973.60999
583874.88 7225402.5 973.53998
583874.88 7225402.5 973.40997
583874.81 7225403 973.28998
583874.81 7225403 973.27002
583874.75 7225403 973.15997
583874.69 7225403.5 973.03998
583874.62 7225403.5 972.96002
583874.62 7225403.5 972.83002
583874.56 7225403.5 972.71997
583874.5 7225404 972.58002
583874.5 7225404 972.45001
583874.38 7225404.5 972.38
583874.38 7225404.5 972.23999
583874.31 7225404.5 972.10999
583874.25 7225405 971.98999
583874.19 7225405 971.84003
583874.19 7225405 971.76001
583874.12 7225405.5 971.63
583874.06 7225405.5 971.53003
583874 7225405.5 971.38
583874 7225406 971.25
583873.94 7225406 971.21997
583873.88 7225406 971.34003
583873.81 7225406.5 971.32001
583873.81 7225406.5 971.60999
583873.75 7225407 971.66998
583873.69 7225407 970.54999
583873.56 7225407.5 965.95001
583873.5 7225407.5 966.02002
583873.44 7225407.5 966
583873.44 7225407.5 965.96997
583873.44 7225408 966.02002
583873.38 7225408 966
583873.31 7225408 965.98999
583873.25 7225408.5 965.96997
583873.25 7225408.5 965.95001
583873.25 7225408.5 965.98999
583873.19 7225408.5 966.01001
583873.12 7225409 966.03003
583873.06 7225409 966.53998
583873 7225409.5 966.69
583873 7225409.5 966.67999
583872.81 7225410 959.63
583872.81 7225410 959.70001
583870.88 7225417.5 961.10999
583870.88 7225417.5 961.09003
583870.81 7225417.5 961.07001
583870.81 7225417.5 961.04999
583870.38 7225419.5 965.46002
583870.31 7225419.5 965.64001
583870.25 7225420 965.41998
583870.25 7225420 965.28003
583870.19 7225420 965.27002
583870.12 7225420.5 965.13
583870.06 7225420.5 964.97998
583870.06 7225420.5 966.67999
583870 7225421 966.5
583869.94 7225421.5 966.58002
583869.88 7225421.5 966.82001
583869.88 7225421.5 966.66998
583869.81 7225422 966.31
583869.75 7225422 966.10999
583869.69 7225422 966.28998
583869.69 7225422 966.84003
583869.62 7225422.5 966.92999
583869.62 7225422.5 967.14001
583869.56 7225423 967.21002
583869.56 7225423 967.15997
583869.5 7225423 967.16998
583869.5 7225423 967.14001
583869.5 7225423 967.26001
583869.44 7225423.5 967.15997
583869.38 7225423.5 967.01001
583869.31 7225423.5 966.92999
583869.19 7225424 965.71997
583869.19 7225424 965.45001
583869.12 7225424.5 965.58002
583869.06 7225424.5 965.67999
583869.06 7225424.5 965.71997
583869 7225425 965.56
583868.94 7225425 965.40002
583868.88 7225425 965.23999
583867.88 7225429 961.76001
583867.88 7225429 961.78998
583867.75 7225429.5 961.82001
583867.75 7225429.5 961.98999
583867.69 7225429.5 962.15002
583867.62 7225430 962.10999
583867.56 7225430 962.03003
583867.56 7225430 962.09003
583867.5 7225430.5 962.14001
583867.44 7225430.5 962.07001
583867.44 7225430.5 962.10999
583867.38 7225431 962.16998
583867.31 7225431 962.19
583867.25 7225431 962.26001
583867.25 7225431.5 962.37
583867.25 7225431.5 962.33002
583867.12 7225432 962.34003
583867.12 7225432 962.31
583867.12 7225432 962.35999
583867.12 7225432 962.33002
583867.06 7225432 962.28998
583867.06 7225432 962.26001
583867 7225432.5 962.28998
583867 7225432.5 962.23999
583866.94 7225432.5 962.03003
583866.88 7225433 961.78998
583866.81 7225433 961.81
583866.81 7225433 961.78003
583866.81 7225433 961.83002
583863.25 7225446.5 960.28003
583863.25 7225446.5 960.54999
583863.25 7225446.5 960.52002
583863.19 7225447 960.59003
583863.19 7225447 960.57001
583862.5 7225447 960.46002
583862.62 7225446.5 960.53003
583862.62 7225446.5 960.56
583862.69 7225446.5 960.26001
583865.69 7225434.5 961.13
583865.69 7225434 961.22998
583865.69 7225434 961.19
583865.75 7225434 961.23999
583865.75 7225434 961.20001
583865.81 7225434 961.20001
583865.81 7225434 961.17999
583865.81 7225433.5 961.06
583865.94 7225433 961.33002
583866 7225433 961.73999
583866.12 7225432.5 961.92999
583866.12 7225432.5 962.13
583866.19 7225432 962.31
583866.19 7225432.5 962.39001
583866.25 7225432 962.32001
583866.31 7225431.5 962.39001
583866.31 7225431.5 962.33002
583866.38 7225431.5 962.28998
583866.38 7225431.5 962.13
583866.44 7225431 962.14001
583866.5 7225431 962.09998
583866.5 7225431 962.20001
583866.56 7225430.5 962.26001
583866.62 7225430.5 962.35999
583866.62 7225430.5 962.34003
583866.69 7225430.5 962.42999
583866.69 7225430 962.34998
583866.75 7225430 962.21997
583866.75 7225430 962.25
583866.75 7225430 962.20001
583866.81 7225429.5 962.15002
583866.81 7225429.5 962.13
583866.94 7225429.5 962.04999
583866.94 7225429 961.95001
583867 7225429 961.56
583867 7225429 961.53998
583867 7225429 961.64001
583867.06 7225428.5 961.14001
583867.06 7225428.5 961.09998
583867.94 7225425.5 965.42999
583868 7225425 965.35999
583868.06 7225425 965.25
583868.12 7225424.5 965.28003
583868.12 7225424.5 965.41998
583868.12 7225424.5 965.38
583868.19 7225424.5 965.40002
583868.25 7225424 965.88
583868.25 7225424 965.85999
583868.31 7225424 966.37
583868.38 7225423.5 967.57001
583868.38 7225423.5 967.59998
583868.44 7225423.5 967.71002
583868.5 7225423 967.73999
583868.5 7225423 967.71997
583868.56 7225423 967.65997
583868.56 7225423 967.63
583868.56 7225423 967.65002
583868.62 7225422.5 967.77002
583868.69 7225422.5 967.71002
583868.75 7225422 967.92999
583868.75 7225422 968.03998
583868.81 7225422 968.04999
583868.88 7225421.5 968.07001
583868.88 7225421.5 968.09003
583868.94 7225421.5 968.08002
583869 7225421 968.10999
583869 7225421 966.83002
583869.06 7225421 967.15002
583869.06 7225421 967.13
583869.12 7225420.5 967.21997
583869.19 7225420.5 966.92999
583869.19 7225420 966.63
583869.25 7225420 966.44
583869.25 7225420 965.10999
583869.31 7225419.5 965.15002
583869.38 7225419.5 965.38
583869.38 7225419.5 965.29999
583869.44 7225419 965.22998
583869.81 7225417.5 961.08002
583869.88 7225417 961.13
583869.88 7225417 961.03003
583871.75 7225410 967.58002
583871.75 7225410 967.66998
583871.81 7225409.5 967.65002
583871.88 7225409.5 967.69
583871.88 7225409.5 967.66998
583871.94 7225409 967.66998
583872 7225409 967.66998
583872.06 7225408.5 967.65002
583872.12 7225408.5 967.65997
583872.12 7225408 967.65002
583872.19 7225408 967.65997
583872.25 7225408 967.67999
583872.25 7225407.5 967.66998
583872.31 7225407.5 967.67999
583872.38 7225407.5 967.69
583872.38 7225407 967.63
583872.44 7225407 967.65002
583872.5 7225407 967.59003
583872.5 7225406.5 967.59003
583872.62 7225406.5 971.78003
583872.69 7225406.5 971.79999
583872.69 7225406 971.81
583872.75 7225406 971.81
583872.75 7225406 971.78003
583872.81 7225406 971.84998
583872.88 7225405.5 971.79999
583872.94 7225405.5 971.90997
583873 7225405 972
583873 7225405 972.12
583873.06 7225405 972.28003
583873.12 7225404.5 972.38
583873.12 7225404.5 972.46997
583873.19 7225404.5 972.59998
583873.25 7225404 972.84003
583873.31 7225404 972.84003
583873.31 7225404 973.04999
583873.38 7225403.5 973.20001
583873.38 7225403.5 973.21997
583873.44 7225403.5 973.21997
583873.5 7225403 973.02002
583873.5 7225403 973.03998
583873.56 7225403 973.16998
583873.62 7225402.5 973.29999
583873.69 7225402 973.44
583873.69 7225402 973.41998
583873.75 7225402 973.54999
583873.75 7225402 973.53003
583873.75 7225402 973.64001
583873.81 7225401.5 973.81
583873.81 7225401.5 973.76001
583873.88 7225401.5 973.92999
583873.94 7225401.5 974.06
583873.94 7225401 974.15002
583874 7225401 974.29999
583874 7225401 974.28003
583874.06 7225401 974.39001
583874.06 7225400.5 974.52002
583874.12 7225400.5 974.60999
583874.19 7225400.5 974.77002
583874.19 7225400 974.85999
583874.31 7225400 975.01001
583874.31 7225399.5 975.12
583874.38 7225399.5 975.25
583874.44 7225399.5 975.38
583874.5 7225399 975.46997
583874.5 7225399 975.45001
583874.56 7225399 975.34003
583874.56 7225398.5 975.20001
583874.62 7225398.5 975.06
583874.62 7225398.5 975.03998
583874.69 7225398.5 974.92999
583874.69 7225398 974.84998
583874.75 7225398 974.69
583874.81 7225397.5 974.56
583874.88 7225397.5 974.41998
583874.94 7225397.5 974.31
583874.94 7225397 974.21997
583875 7225397 974.06
583875 7225397 973.96002
583875.06 7225396.5 973.87
583875.12 7225396.5 973.71997
583875.12 7225396.5 973.57001
583875.19 7225396 973.51001
583875.25 7225396 973.41998
583875.25 7225396 973.29999
583875.25 7225396 973.28003
583875.38 7225395.5 973.15002
583875.38 7225395.5 973.13
583875.38 7225395.5 973
583875.38 7225395.5 973.02002
583875.38 7225395.5 972.98999
583875.5 7225395 973.21002
583875.5 7225395 973.16998
583875.5 7225395 973.20001
583875.56 7225394.5 967.47998
583875.56 7225394.5 967.45001
583875.62 7225394 967.41998
583875.69 7225394 967.44
583875.69 7225394 967.40002
583875.75 7225393.5 967.40002
583875.75 7225393.5 967.37
583875.75 7225393.5 967.34998
583875.81 7225393.5 967.37
583875.88 7225393 967.37
583875.94 7225393 967.33002
583875.94 7225393 967.33002
583876 7225392.5 967.35999
583876.06 7225392 967.33002
583876.12 7225392 967.29999
583876.19 7225392 967.34003
583876.19 7225392 967.31
583876.19 7225391.5 967.31
583876.25 7225391.5 967.17999
583876.25 7225391.5 967.12
583876.31 7225391 966.95001
583876.38 7225391 966.78003
583876.38 7225391 966.71002
583876.44 7225390.5 966.53998
583876.5 7225390.5 966.46002
583876.56 7225390 966.29999
583876.62 7225390 966.20001
583876.62 7225390 966.03003
583876.69 7225389.5 965.96997
583876.75 7225389.5 965.84003
583876.75 7225389.5 965.73999
583876.75 7225389.5 965.71002
583876.81 7225389 965.62
583876.88 7225389 967.58002
583876.94 7225389 967.60999
583876.94 7225388.5 967.67999
583877 7225388.5 967.65002
583877.06 7225388 967.65002
583877.06 7225388 961.23999
583877.12 7225388 961.20001
583877.06 7225388 961.21002
583877.19 7225387.5 961.26001
583877.25 7225387.5 961.60999
583877.25 7225387 961.71997
583877.31 7225387 961.81
583877.38 7225387 961.81
583877.38 7225387 961.78998
583877.38 7225386.5 958.97998
583877.38 7225386.5 958.94
583877.44 7225386.5 958.89001
583877.44 7225386 958.85999
583877.5 7225386 958.89001
583877.56 7225386 958.88
583878.25 7225383 958.81
583878.31 7225383 958.82001
583879.56 7225377.5 958.78998
583882.19 7225367 960.83002
583882.19 7225367 960.78998
583882.25 7225366.5 960.91998
583882.31 7225366.5 960.91998
583882.31 7225366.5 960.90002
583885.31 7225354 958.16998
583885.38 7225354 958.16998
583885.44 7225353.5 958.17999
583885.5 7225353.5 958.19
583885.56 7225353 958.23999
583885.56 7225353 958.23999
583885.56 7225353 958.25
583885.69 7225352.5 958.28998
583885.69 7225352.5 958.26001
583885.75 7225352.5 958.27002
583885.81 7225352.5 962.26001
583885.88 7225352 962.37
583885.88 7225352 962.39001
583885.94 7225352 962.38
583886 7225351.5 962.35999
583886 7225351.5 962.34003
583886.06 7225351.5 962.37
583886.12 7225351 962.31
583886.19 7225351 962.33002
583886.25 7225350.5 962.34003
583886.25 7225350.5 962.34003
583886.31 7225350.5 962.34998
583886.38 7225350 962.33002
583886.38 7225350 962.33002
583886.44 7225350 962.34998
583886.5 7225349.5 962.27002
583886.5 7225349.5 962.33002
583886.56 7225349.5 962.31
583886.62 7225349 962.38
583886.62 7225349 962.35999
583886.69 7225349 962.28998
583886.75 7225348.5 962.32001
583886.81 7225348 962.34998
583886.81 7225348.5 962.28003
583886.94 7225348 962.40997
583886.94 7225347.5 962.34003
583887 7225347.5 962.27002
583887 7225347.5 962.34998
583887.06 7225347 962.31
583887.06 7225347 962.28998
583887.12 7225347 962.38
583887.19 7225347 962.31
583887.19 7225346.5 962.34003
583887.31 7225346.5 962.35999
583887.25 7225346.5 962.32001
583887.31 7225346 962.31
583887.38 7225346 962.34003
583887.44 7225345.5 962.32001
583887.5 7225345.5 962.28003
583887.5 7225345.5 962.32001
583887.56 7225345 962.34003
583887.62 7225345 962.27002
583887.69 7225345 962.33002
583887.69 7225344.5 962.33002
583887.75 7225344.5 962.37
583887.81 7225344.5 962.29999
583887.81 7225344 962.28003
583887.88 7225344 962.33002
583887.94 7225344 962.28998
583887.94 7225343.5 962.25
583888 7225343.5 962.33002
583888.06 7225343 962.31
583888.12 7225343 962.33002
583888.19 7225343 962.27002
583888.19 7225342.5 962.28003
583888.25 7225342.5 962.34003
583888.31 7225342 962.33002
583888.31 7225342 962.32001
583888.38 7225342 962.34998
583888.44 7225341.5 962.38
583888.44 7225341.5 962.28998
583888.5 7225341.5 962.29999
583888.56 7225341 962.32001
583888.56 7225341 962.29999
583888.62 7225341 962.26001
583888.69 7225340.5 962.34003
583888.69 7225340.5 962.26001
583888.81 7225340 962.29999
583888.81 7225340 962.28003
583888.88 7225340 962.28003
583888.94 7225339.5 962.26001
583888.94 7225339.5 962.28003
583889 7225339.5 962.28998
583889.06 7225339 962.28998
583889.06 7225339 962.29999
583889.12 7225339 962.16998
583889.19 7225338.5 958.28003
583889.19 7225338.5 958.26001
583889.25 7225338 958.34998
583889.25 7225338 958.29999
583889.31 7225338 958.39001
583889.38 7225337.5 958.32001
583889.38 7225337.5 957.91998
583889.44 7225337.5 957.62
583889.5 7225337 957.53998
583889.5 7225337 957.34003
583889.56 7225337 957.15997
583889.62 7225336.5 957.13
583889.69 7225336.5 957.41998
583889.75 7225336 958.08002
583889.75 7225336 958.04999
583889.81 7225336 958.08002
583889.88 7225335.5 957.96997
583889.94 7225335.5 957.84003
583890 7225335 957.16998
583890 7225335 957.39001
583892.5 7225325 957.12
583892.56 7225324.5 957.28003
583892.62 7225324.5 957.26001
583892.62 7225324 957.21002
583892.62 7225324 957.19
583892.69 7225324 957.48999
583892.75 7225324 957.95001
583892.75 7225324 957.92999
583892.75 7225323.5 958.04999
583892.75 7225323.5 958.03003
583892.81 7225323.5 958.09998
583892.88 7225323.5 957.71997
583892.88 7225323 957.34998
583893 7225323 957.53003
583893 7225322.5 957.65002
583893 7225322.5 957.72998
583893.12 7225322.5 957.33002
583893.12 7225322 957.48999
583893.19 7225322 957.41998
583893.25 7225322 957.40002
583893.25 7225321.5 957.48999
583893.31 7225321.5 957.5
583893.38 7225321.5 959.48999
583893.38 7225321.5 960
583893.44 7225321 960.12
583893.44 7225321 960.09003
583893.5 7225321 960.14001
583893.5 7225320.5 958.48999
583893.5 7225320.5 958.46002
583893.62 7225320.5 958.5
583893.69 7225320 958.48999
583893.69 7225320 958.44
583893.69 7225320 958.5
583893.75 7225320 958.52002
583893.75 7225320 958.47998
583893.81 7225319.5 958.52002
583893.88 7225319 958.35999
583893.94 7225319 958.08002
583893.94 7225319 958.01001
583894 7225318.5 957.90997
583893.94 7225318.5 957.78998
583893.94 7225318.5 957.77002
583893.88 7225319 957.78998
583893.88 7225319 957.84998
583893.81 7225319 958.15997
583893.75 7225319.5 958.52002
583893.75 7225319.5 958.5
583893.75 7225319.5 958.56
583893.69 7225320 958.54999
583893.62 7225320 958.56
583893.56 7225320.5 958.54999
583893.5 7225320.5 958.54999
583893.5 7225320.5 958.54999
583893.44 7225321 958.51001
583893.38 7225321 960.21997
583893.31 7225321 960.12
583893.31 7225321 960.09998
583893.31 7225321.5 959.71997
583893.31 7225321.5 959.67999
583893.25 7225321.5 957.64001
583893.25 7225321.5 957.62
583893.19 7225321.5 957.5
583893.19 7225321.5 957.37
583893.06 7225322 957.34003
583893.06 7225322.5 957.46997
583893 7225322.5 957.33002
583892.94 7225322.5 957.39001
583892.75 7225323.5 957.60999
583892.69 7225323.5 958.07001
583892.62 7225324 958.02002
583892.62 7225324 957.83002
583892.56 7225324 957.25
583892.5 7225324.5 957.25
583892.5 7225324.5 957.28998
583892.38 7225325 957.23999
583892.38 7225325 957.20001
583889.94 7225334.5 957.82001
583889.75 7225335.5 958.07001
583889.75 7225335.5 958.01001
583889.75 7225335.5 958.09003
583889.75 7225335.5 958.04999
583889.69 7225335.5 958.08002
583889.69 7225335.5 958.06
583889.56 7225336 958.04999
583889.56 7225336 957.96997
583889.5 7225336.5 957.13
583889.44 7225336.5 957.15997
583889.44 7225336.5 957.14001
583889.25 7225337.5 957.84998
583889.25 7225337.5 957.82001
583889.19 7225337.5 958.09003
583889.19 7225338 958.34998
583889.06 7225338 958.40002
583889.06 7225338.5 958.45001
583889 7225338.5 958.97998
583888.94 7225338.5 959.07001
583888.94 7225339 959.02002
583888.94 7225339 959
583886.81 7225347 958.34003
583886.81 7225347 958.28003
583886.75 7225347.5 958.22998
583886.69 7225347.5 958.28998
583886.69 7225347.5 958.31
583886.62 7225348 958.28003
583886.56 7225348 958.28998
583886.56 7225348 958.27002
583886.44 7225348.5 958.26001
583886.44 7225348.5 958.23999
583886.38 7225349 958.29999
583886.31 7225349 958.28003
583886.31 7225349 958.29999
583886.25 7225349.5 958.29999
583886.19 7225349.5 958.31
583886.19 7225349.5 958.31
583886.12 7225350 958.32001
583886 7225350 958.29999
583886 7225350.5 958.28998
583885.94 7225350.5 958.33002
583885.88 7225351 958.34003
583885.81 7225351 958.31
583885.75 7225351.5 958.33002
583885.75 7225351.5 958.28003
583885.69 7225351.5 958.28998
583885.62 7225352 958.28998
583885.62 7225352 958.28003
583885.56 7225352 958.27002
583885.5 7225352.5 958.29999
583885.44 7225352.5 958.25
583885.38 7225353 958.22998
583885.31 7225353 958.23999
583885.25 7225353.5 958.20001
583885.19 7225353.5 958.21002
583885.19 7225353.5 958.16998
583885.12 7225354 958.15997
583885.06 7225354 958.15997
583884.69 7225356 964.65002
583881.94 7225366.5 960.96002
583881.94 7225366.5 960.94
583881.94 7225366.5 960.81
583881.81 7225367 960.78998
583879.12 7225377 958.79999
583877.69 7225383 958.90002
583877.69 7225383 958.84998
583877.19 7225385 958.78998
583877 7225385.5 958.83002
583877 7225385.5 958.81
583876.94 7225386 958.89001
583876.88 7225386 958.90997
583876.81 7225386.5 958.90002
583876.81 7225386.5 958.94
583876.75 7225386.5 961.83002
583876.75 7225386.5 961.78998
583876.75 7225387 961.78998
583876.69 7225387 961.77002
583876.62 7225387.5 961.57001
583876.56 7225387.5 961.19
583876.5 7225387.5 961.14001
583876.5 7225387.5 961.21002
583876.5 7225388 967.78003
583876.44 7225388 967.64001
583876.44 7225388.5 967.69
583876.38 7225388.5 967.66998
583876.31 7225388.5 967.64001
583876.25 7225389 967.58002
583876.25 7225389 965.63
583876.19 7225389 965.78003
583876.12 7225389.5 965.84998
583876.06 7225389.5 966.01001
583876 7225390 966.06
583876 7225390 966.15997
583875.94 7225390 966.29999
583875.94 7225390 966.42999
583875.88 7225390.5 966.56
583875.81 7225390.5 966.69
583875.75 7225391 966.73999
583875.69 7225391 966.72998
583875.69 7225391 966.71002
583875.69 7225391 966.73999
583875.62 7225391.5 966.73999
583875.56 7225391.5 966.76001
583875.5 7225392 966.76001
583875.5 7225392 966.79999
583875.44 7225392 966.78998
583875.38 7225392.5 966.81
583875.38 7225392.5 966.78998
583875.25 7225393 966.82001
583875.25 7225393 966.84003
583875.25 7225393 966.84003
583875.12 7225393.5 966.89001
583875.12 7225393.5 966.88
583875.12 7225393.5 966.83002
583875.06 7225393.5 966.90002
583875.06 7225393.5 966.88
583875 7225394 966.90002
583875 7225394 966.92999
583875 7225394 966.90002
583874.94 7225394 966.94
583874.88 7225394.5 966.96002
583874.94 7225394.5 973.20001
583874.88 7225394.5 973.22998
583874.81 7225395 973.23999
583874.75 7225395 973.08002
583874.75 7225395 973.03998
583874.69 7225395.5 973.01001
583874.69 7225395.5 973.15002
583874.69 7225395.5 973.10999
583874.62 7225395.5 973.29999
583874.56 7225396 973.40002
583874.5 7225396 973.54999
583874.5 7225396 973.5
583874.5 7225396 973.62
583874.44 7225396.5 973.78998
583874.44 7225396.5 973.76001
583874.44 7225396.5 973.85999
583874.44 7225396.5 973.82001
583874.38 7225396.5 974.01001
583874.31 7225397 974.09998
583874.25 7225397 974.20001
583874.25 7225397 974.33002
583874.19 7225397.5 974.45001
583874.19 7225397.5 974.56
583874.12 7225397.5 974.67999
583874 7225398 974.73999
583874 7225398 974.71997
583874 7225398 974.91998
583874 7225398 974.90002
583873.94 7225398.5 975.02002
583873.94 7225398.5 975.17999
583873.88 7225398.5 975.25
583873.81 7225399 975.38
583873.81 7225399 975.47998
583873.75 7225399 975.40002
583873.69 7225399.5 975.29999
583873.62 7225399.5 975.10999
583873.62 7225399.5 975
583873.56 7225400 974.91998
583873.56 7225400 974.90002
583873.5 7225400 974.81
583873.44 7225400.5 974.64001
583873.38 7225400.5 974.52002
583873.31 7225400.5 974.41998
583873.31 7225401 974.28998
583873.25 7225401 974.19
583873.19 7225401 974.06
583873.19 7225401.5 973.95001
583873.12 7225401.5 973.79999
583873.06 7225401.5 973.70001
583873 7225402 973.58002
583873 7225402 973.46002
583872.94 7225402 973.26001
583872.81 7225402.5 973.16998
583872.81 7225402.5 973.06
583872.75 7225403 972.97998
583872.75 7225403 973.14001
583872.69 7225403 973.21997
583872.69 7225403 973.20001
583872.62 7225403.5 973.17999
583872.5 7225403.5 967.26001
583872.44 7225404 967.28003
583872.44 7225404 967.28003
583872.38 7225404 967.29999
583872.31 7225404.5 967.28998
583872.25 7225404.5 967.28998
583872.25 7225404.5 967.29999
583872.25 7225404.5 967.28003
583872.19 7225405 967.28998
583872.19 7225405 967.27002
583872.12 7225405 967.32001
583872.12 7225405 967.28998
583872 7225405.5 967.27002
583872 7225405.5 967.28998
583872 7225405.5 967.31
583871.88 7225406 967.33002
583871.81 7225406 967.34998
583871.81 7225406 967.32001
583871.81 7225406.5 967.22998
583871.75 7225406.5 967.10999
583871.75 7225406.5 967.03998
583871.69 7225406.5 966.97998
583871.69 7225406.5 966.94
583871.62 7225407 966.83002
583871.62 7225407 966.79999
583871.62 7225407 966.72998
583871.56 7225407 966.60999
583871.5 7225407.5 966.53003
583871.5 7225407.5 966.39001
583871.44 7225407.5 966.28998
583871.38 7225408 966.15002
583871.38 7225408 966.13
583871.31 7225408 966.08002
583871.31 7225408 966.03003
583871.25 7225408.5 965.90002
583871.25 7225408.5 965.88
583871.19 7225408.5 965.84998
583871.19 7225408.5 965.82001
583871.12 7225408.5 965.70001
583871.12 7225409 965.56
583871.06 7225409 967.58002
583871.06 7225409 967.69
583871 7225409.5 967.65997
583870.94 7225409.5 967.69
583870.94 7225409.5 967.65997
583870.81 7225410 963.20001
583870.75 7225410 963.21002
583870.75 7225410 963.17999
583870.69 7225410.5 963.20001
583870.62 7225410.5 963.28003
583870.62 7225410.5 963.22998
583870.56 7225411 963.23999
583870.56 7225411 963.21997
583870.56 7225411 963.22998
583870.5 7225411 963.28003
583870.44 7225411.5 963.21002
583870.44 7225411.5 963.20001
583870.38 7225411.5 963.16998
583870.31 7225412 963.15997
583870.25 7225412 963.22998
583870.25 7225412 963.14001
583870.19 7225412.5 963.21002
583870.12 7225412.5 963.15002
583870.06 7225413 963.21997
583870 7225413 963.16998
583870 7225413 963.14001
583869.94 7225413.5 963.15002
583869.88 7225413.5 963.19
583869.81 7225413.5 963.22998
583869.81 7225414 963.13
583869.81 7225414 963.10999
583869.75 7225414 963.15002
583869.69 7225414 963.16998
583869.69 7225414.5 963.27002
583869.62 7225414.5 963.19
583869.62 7225414.5 963.16998
583869.56 7225414.5 963.17999
583869.5 7225415 963.17999
583869.44 7225415 963.23999
583868.94 7225417 961.09003
583868.94 7225417 961.09998
583868.94 7225417 961.06
583868.88 7225417.5 960.97998
583868.75 7225418 961.84003
583868.69 7225418 961.81
583868.62 7225418.5 961.90002
583868.62 7225418.5 961.88
583868.56 7225418.5 962.45001
583868.62 7225418.5 965.85999
583868.56 7225418.5 965.59998
583868.5 7225419 965.35999
583868.44 7225419 965.21997
583868.44 7225419 965.15002
583868.31 7225419.5 965.78998
583868.31 7225419.5 965.81
583868.31 7225419.5 965.90002
583868.25 7225420 966.04999
583868.19 7225420 966.01001
583868.19 7225420 967.84003
583868.19 7225420 967.82001
583868.12 7225420.5 967.71997
583868.06 7225420.5 966.87
583868 7225421 967.12
583868 7225421 968.03003
583867.94 7225421 968
583867.88 7225421.5 967.96997
583867.81 7225421.5 967.88
583867.81 7225421.5 967.78003
583867.75 7225422 967.70001
583867.69 7225422 967.67999
583867.69 7225422 967.63
583867.69 7225422 967.59003
583867.56 7225422.5 967.69
583867.56 7225422.5 967.46997
583867.5 7225423 967.20001
583867.44 7225423 967.13
583867.44 7225423 967.08002
583867.38 7225423 967.09003
583867.31 7225423.5 967.08002
583867.31 7225423.5 967.03003
583867.25 7225424 966.89001
583867.19 7225424 966.47998
583867.19 7225424 966.46002
583867.12 7225424 966.31
583867.12 7225424.5 966.37
583867.06 7225424.5 966.44
583867 7225424.5 966.25
583866.94 7225425 965.91998
583866.94 7225425 965.91998
583866.81 7225425.5 964.51001
583866.06 7225428 961
583866.06 7225428 961.28998
583866 7225428 961.27002
583866 7225428.5 961.29999
583866 7225428.5 961.27002
583865.94 7225428.5 961.26001
583865.94 7225428.5 961.23999
583865.88 7225428.5 961.29999
583865.88 7225429 961.28998
583865.81 7225429 961.23999
583865.81 7225429 961.21002
583865.75 7225429 961.27002
583865.75 7225429.5 961.34998
583865.69 7225429.5 961.52002
583865.62 7225429.5 961.82001
583865.62 7225430 962.01001
583865.5 7225430 962.32001
583865.5 7225430 962.57001
583865.44 7225430.5 962.44
583865.38 7225430.5 962.41998
583865.38 7225431 962.42999
583865.31 7225431 962.45001
583865.25 7225431 962.40002
583865.25 7225431 962.57001
583865.19 7225431.5 962.70001
583865.12 7225431.5 962.75
583865.06 7225432 962.78003
583865.06 7225432 962.78003
583865 7225432 962.81
583864.94 7225432.5 962.58002
583864.88 7225433 962.21002
583864.81 7225433 961.53003
583864.81 7225433 961.47998
583864.81 7225433 961.45001
583864.75 7225433 961.59998
583864.69 7225433.5 961.53998
583864.62 7225433.5 961.42999
583864.56 7225434 961.32001
583864.5 7225434 961.39001
583864.5 7225434 961.35999
583864.5 7225434 961.25
583861.31 7225446.5 960.34998
583861.25 7225446.5 960.5
583861.25 7225446.5 960.47998
583861.25 7225446.5 960.51001
583859.88 7225446 960.46997
583859.88 7225446 960.37
583859.94 7225446 960.12
583862.94 7225433 960.77002
583863 7225433 960.76001
583863 7225433 960.84003
583863.06 7225432.5 960.96997
583863.12 7225432.5 961.59003
583863.19 7225432.5 962.38
583863.25 7225432 962.44
583863.25 7225432 962.59998
583863.25 7225432 962.56
583863.31 7225431.5 962.65002
583863.38 7225431.5 962.76001
583863.44 7225431 962.79999
583863.5 7225431 962.76001
583863.5 7225431 962.71997
583863.5 7225431 962.63
583863.56 7225430.5 962.65002
583863.62 7225430.5 962.78998
583863.62 7225430.5 962.77002
583863.62 7225430.5 962.88
583863.62 7225430.5 962.84998
583863.69 7225430 962.78998
583863.69 7225430 962.48999
583863.81 7225429.5 962.34998
583863.81 7225429.5 962.34003
583863.81 7225429.5 962.29999
583863.94 7225429 962.28998
583863.94 7225429 962.27002
583863.88 7225429 962.21002
583863.94 7225429 962.04999
583864 7225429 961.84998
583864.06 7225428.5 960.64001
583864.06 7225428.5 960.59998
583864.12 7225428 960.56
583864.19 7225428 960.71002
583864.19 7225428 960.78998
583864.25 7225427.5 960.66998
583864.25 7225427.5 960.26001
583864.31 7225427.5 960.08002
583865 7225424.5 964.94
583865.06 7225424.5 964.90002
583865.06 7225424.5 964.87
583865.12 7225424 964.79999
583865.19 7225424 964.77002
583865.25 7225423.5 964.67999
583865.31 7225423.5 966.10999
583865.38 7225423 966.15997
583865.38 7225423 966.22998
583865.38 7225423 966.17999
583865.44 7225423 966.26001
583865.5 7225422.5 967.76001
583865.56 7225422.5 967.81
583865.62 7225422 968.04999
583865.62 7225422 968.01001
583865.69 7225422 967.5
583865.69 7225422 967.45001
583865.75 7225421.5 967.13
583865.75 7225421.5 967.34003
583865.81 7225421.5 967.71002
583865.81 7225421.5 967.67999
583865.88 7225421 967.73999
583865.94 7225421 967.87
583865.94 7225421 967.84003
583865.94 7225421 967.85999
583865.94 7225421 967.83002
583866 7225420.5 967.77002
583866 7225420.5 966.02002
583866 7225420.5 966
583866.06 7225420.5 966.23999
583866.06 7225420 965.82001
583866.06 7225420 964.81
583866.12 7225420 964.71002
583866.19 7225419.5 964.52002
583866.25 7225419.5 964.81
583866.25 7225419.5 964.78998
583866.25 7225419.5 965.03998
583866.31 7225419 965.03998
583866.38 7225419 965.09998
583866.38 7225418.5 963.02002
583866.44 7225418.5 963.13
583866.44 7225418.5 962.83002
583866.5 7225418 962.94
583866.56 7225418 963
583866.56 7225418 963.14001
583866.56 7225417.5 961.40997
583866.62 7225417.5 961.07001
583866.81 7225417 963.06
583866.88 7225416.5 963.01001
583866.94 7225416.5 962.97998
583867 7225416 962.91998
583867 7225416 962.94
583867.06 7225416 962.95001
583867.12 7225415.5 962.96997
583867.12 7225415.5 962.96997
583867.19 7225415.5 962.91998
583867.25 7225415 962.94
583867.25 7225415 962.96997
583867.31 7225415 962.95001
583867.38 7225414.5 962.96002
583867.38 7225414.5 962.92999
583867.5 7225414 962.96997
583867.44 7225414 962.96997
583867.56 7225413.5 962.97998
583867.56 7225413.5 962.95001
583867.62 7225413.5 962.95001
583867.69 7225413 962.96997
583867.69 7225413 962.96002
583867.75 7225413 962.96997
583867.81 7225412.5 962.95001
583867.81 7225412.5 963.01001
583867.88 7225412.5 962.97998
583867.94 7225412 962.91998
583868 7225412 962.94
583868 7225412 962.92999
583868.06 7225411.5 962.95001
583868.12 7225411.5 962.92999
583868.12 7225411 962.95001
583868.19 7225411 962.97998
583868.25 7225411 962.96002
583868.25 7225410.5 962.95001
583868.31 7225410.5 962.95001
583868.38 7225410.5 962.92999
583868.38 7225410 962.89001
583868.5 7225410 962.94
