# .PCD v0.7 - Point Cloud Data file format
VERSION 0.7
FIELDS x y z
SIZE 4 4 4
TYPE F F F
COUNT 1 1 1
WIDTH 1701
HEIGHT 1
VIEWPOINT 0 0 0 1 0 0 0
POINTS 1701
DATA ascii
584059.69 7225305 967.32001
584059.69 7225305 967.29999
584059 7225305 967.28998
584058.06 7225305 967.27002
584057.31 7225304.5 967.28998
584056.62 7225304.5 967.28998
584055.69 7225304 967.25
584055 7225304 967.28003
584054.25 7225304 967.31
584053.38 7225303.5 967.15002
584052.62 7225303.5 967.27002
584052.69 7225303.5 964.12
584067.56 7225304 965.73999
584068.31 7225304 965.65002
584068.31 7225304 965.63
584070 7225304.5 965.60999
584070 7225304.5 965.56
584070.69 7225304.5 965.70001
584070.69 7225304.5 965.67999
584071.25 7225304.5 966.33002
584072.06 7225305 966.72998
584072.69 7225305 967.10999
584072.69 7225305 967.08002
584073.31 7225305 967.34003
584074 7225305.5 967.69
584075 7225305.5 967.38
584075 7225305.5 967.34998
584075.81 7225306 967.09998
584076.88 7225306 966.62
584076.88 7225306 966.59003
584077.56 7225306.5 966.77002
584077.56 7225306.5 966.73999
584078.19 7225306.5 966.98999
584078.88 7225306.5 967.25
584078.88 7225306.5 967.22998
584079.5 7225307 967.51001
584080.38 7225307 967.78003
584081.06 7225307.5 967.98999
584081.75 7225307.5 968.20001
584081.75 7225307.5 968.17999
584082.56 7225307.5 968.5
584083.25 7225308 968.71002
584083.25 7225308 968.69
584084.25 7225308 967.65997
584085.31 7225308.5 967.27002
584085.81 7225308.5 967.34998
584086.75 7225308.5 967.5
584087.44 7225309 967.67999
584091.12 7225310 968.97998
584091.75 7225310 969.32001
584092.38 7225310 969.60999
584093.19 7225310.5 970.03998
584093.25 7225310.5 970
584093.94 7225310.5 970.03003
584094.69 7225311 970.06
584095.31 7225311 970.27002
584096 7225311 970.54999
584096.81 7225311.5 970.90002
584097.62 7225311.5 970.72998
584098.69 7225312 970.28003
584099.56 7225312 969.75
584100.5 7225312.5 969.27002
584101.56 7225312.5 968.90002
584104.25 7225313.5 967.46997
584104.25 7225313.5 967.45001
584105.69 7225313.5 968.15002
584105.06 7225313.5 972.46997
584105.75 7225313.5 972.71002
584106.44 7225314 972.90997
584106.44 7225314 972.89001
584107.25 7225314 973.23999
584107.88 7225314 973.47998
584107.94 7225314 973.46002
584108.56 7225314.5 973.67999
584109.38 7225314.5 974.08002
584109.44 7225314.5 974.03998
584110.19 7225315 973.84003
584110.25 7225315 973.81
584110.38 7225315 975.72998
584110.38 7225315 975.71002
584111.12 7225315 975.71997
584112.94 7225315.5 973.03998
584112.94 7225315.5 973.01001
584113.75 7225315.5 972.72998
584114.56 7225316 972.54999
584115.38 7225316 972.96997
584115.88 7225316.5 973.69
584116.5 7225316.5 973.96997
584117.19 7225316.5 974.25
584117.19 7225316.5 974.21997
584117.81 7225317 974.52002
584118.75 7225317 974.67999
584118.75 7225317 974.65002
584119.44 7225317 974.77002
584119.44 7225317 974.75
584120.19 7225317.5 974.78003
584121.12 7225317.5 974.79999
584121.12 7225317.5 974.78003
584121.88 7225318 974.82001
584122.69 7225318 974.51001
584123.62 7225318.5 974.03003
584124.69 7225318.5 973.72998
584126.38 7225319 970.91998
584126.38 7225319 970.90002
584126.06 7225319 973.98999
584126.06 7225319 976.33002
584126.06 7225319 976.31
584126.19 7225319 978.82001
584126.19 7225319 978.76001
584126.69 7225319 979.46997
584126.69 7225319 979.42999
584127.44 7225319.5 979.41998
584127.44 7225319.5 979.38
584128.38 7225319.5 979.59003
584129.06 7225319.5 979.65002
584129.75 7225320 979.78003
584130.56 7225320 979.71002
584131.56 7225320.5 979.53998
584132.31 7225320.5 979.42999
584133.31 7225321 979.35999
584133.75 7225321 979.71997
584137.25 7225322 972.26001
584137.94 7225322 972.42999
584138 7225322 972.38
584138.69 7225322 972.59998
584139.56 7225322.5 972.84998
584140.25 7225322.5 973
584140.94 7225323 973.17999
584141.75 7225323 972.92999
584142.81 7225323.5 972.71997
584143.44 7225323.5 972.40002
584144.5 7225323.5 972.28003
584145.56 7225324 972.03998
584146.25 7225324 972.08002
584146.62 7225324 973.28003
584146.62 7225324 973.26001
584147.56 7225324.5 973.28003
584148.31 7225324.5 973.26001
584149.12 7225325 973.26001
584149.88 7225325 973.23999
584149.88 7225325 973.20001
584150.62 7225325.5 973.22998
584150.62 7225325.5 973.20001
584151.62 7225325.5 973.27002
584152.38 7225326 973.25
584153.12 7225326 973.25
584153.94 7225326 973.71997
584154 7225326 975.59003
584154 7225326 977.71002
584155.5 7225326.5 975.70001
584156.44 7225327 975.71997
584157.19 7225327 975.76001
584157.19 7225327 975.71997
584158 7225327 975.64001
584158.94 7225327.5 975.75
584159.69 7225327.5 975.71997
584160.5 7225328 975.69
584161.25 7225328 975.65997
584161.25 7225328 975.64001
584162.25 7225328.5 975.70001
584163 7225328.5 975.66998
584163 7225328.5 975.65002
584163.75 7225328.5 975.62
584165.88 7225329 973.21002
584164.31 7225329 975.5
584163.44 7225328.5 975.70001
584162.5 7225328.5 975.65997
584161.69 7225328 975.70001
584160.94 7225328 975.71002
584159.94 7225327.5 975.66998
584159.19 7225327.5 975.70001
584158.44 7225327 975.71997
584157.44 7225327 975.69
584157.5 7225327 975.65002
584156.69 7225327 975.72998
584156.69 7225327 975.70001
584155.75 7225326.5 975.62
584154.94 7225326.5 975.71997
584154.25 7225326 975.65002
584153.62 7225326 975.26001
584153.56 7225326 973.21997
584152.56 7225325.5 973.21002
584151.88 7225325.5 973.16998
584151.06 7225325.5 973.19
584150.31 7225325 973.22998
584149.38 7225325 973.15997
584148.56 7225324.5 973.19
584148.62 7225324.5 973.16998
584147.81 7225324.5 973.21002
584147 7225324 973.26001
584147.06 7225324 973.21997
584146.25 7225324 973.23999
584145.81 7225324 971.78003
584145 7225323.5 972.03998
584144.12 7225323.5 972.34003
584143.25 7225323.5 972.53998
584142.25 7225323 972.71002
584141.38 7225323 972.97998
584140.56 7225322.5 973.13
584139.88 7225322.5 972.92999
584139.19 7225322 972.77002
584139.19 7225322 972.71997
584138.31 7225322 972.56
584138.31 7225322 972.53003
584137.62 7225322 972.34003
584136.94 7225321.5 972.15997
584133.5 7225320.5 979.22998
584132.75 7225320.5 979.28998
584132 7225320.5 979.40997
584131.12 7225320 979.59003
584131.19 7225320 979.56
584130.38 7225320 979.75
584130.38 7225320 979.71997
584129.44 7225319.5 979.64001
584128.75 7225319.5 979.52002
584128.75 7225319.5 979.5
584128 7225319.5 979.42999
584127.06 7225319 979.33002
584127.12 7225319 979.29999
584126.19 7225319 979.78998
584126.12 7225319 977.17999
584126.25 7225319 974.52002
584126.75 7225319 970.89001
584126.75 7225319 970.87
584124.88 7225318.5 973.64001
584124.06 7225318 973.85999
584123.12 7225318 974.32001
584122.06 7225317.5 974.69
584122.06 7225317.5 974.66998
584121.31 7225317.5 974.71002
584120.38 7225317.5 974.69
584119.62 7225317 974.64001
584118.88 7225317 974.66998
584118.88 7225317 974.64001
584117.94 7225316.5 974.59998
584117.25 7225316.5 974.42999
584117.31 7225316.5 974.40002
584116.5 7225316.5 973.95001
584116.5 7225316.5 973.91998
584115.81 7225316 973.73999
584115.81 7225316 973.69
584115.19 7225316 972.76001
584114.5 7225316 972.57001
584114.5 7225316 972.53998
584113.69 7225315.5 972.77002
584112.69 7225315.5 972.89001
584110.88 7225315 975.70001
584110.19 7225314.5 975.62
584109.81 7225314.5 973.78003
584109.06 7225314.5 973.84003
584108.19 7225314 973.53998
584107.5 7225314 973.33002
584106.69 7225313.5 973.01001
584106 7225313.5 972.78003
584105.38 7225313.5 972.56
584105.5 7225313.5 969.10999
584104.5 7225313 967.62
584100.62 7225312 969.12
584099.75 7225312 969.63
584098.62 7225311.5 970.09998
584097.75 7225311.5 970.62
584096.94 7225311 970.90002
584096.06 7225311 970.62
584095.44 7225311 970.34003
584094.75 7225310.5 970.09003
584094.06 7225310.5 970.02002
584093.31 7225310 970.02002
584092.5 7225310 969.65997
584091.81 7225310 969.34003
584091.19 7225309.5 969
584091.25 7225309.5 965.57001
584089.75 7225309.5 965.75
584087.69 7225309 967.67999
584086.81 7225308.5 967.53998
584086.12 7225308.5 967.35999
584085.25 7225308 967.21002
584084.44 7225308 967.39001
584084.44 7225308 967.35999
584083.38 7225307.5 968.58002
584083.38 7225307.5 968.56
584082.62 7225307.5 968.48999
584081.81 7225307 968.15997
584081.12 7225307 967.96997
584081.12 7225307 967.95001
584080.44 7225307 967.78998
584079.62 7225306.5 967.46002
584078.94 7225306.5 967.23999
584078.12 7225306 966.96002
584078.12 7225306 966.90002
584077.44 7225306 966.71997
584077.44 7225306 966.70001
584076.75 7225306 966.51001
584075.88 7225305.5 967.07001
584074.88 7225305.5 967.33002
584074.06 7225305 967.70001
584073.38 7225305 967.37
584072.56 7225305 966.98999
584071.94 7225304.5 966.70001
584071.25 7225304.5 966.39001
584070.56 7225304.5 965.59998
584070.56 7225304.5 965.58002
584069.81 7225304 965.60999
584068.94 7225304 965.60999
584068.94 7225304 965.57001
584068.19 7225303.5 965.59003
584067.44 7225303.5 965.65997
584054.94 7225298 964.15002
584055.62 7225298 964.17999
584056.56 7225298.5 964.28998
584057.25 7225298.5 964.33002
584057.94 7225298.5 964.40002
584058.69 7225299 964.46002
584059.56 7225299 964.70001
584060.25 7225299.5 964.65002
584061 7225299.5 964.63
584061 7225299.5 964.58002
584061.75 7225299.5 964.56
584061.75 7225299.5 964.52002
584062.69 7225300 964.63
584062.69 7225300 964.59003
584063.31 7225300 964.96002
584067.81 7225301 966.02002
584068.44 7225301.5 966.20001
584068.5 7225301.5 966.15997
584069.25 7225301.5 966.03998
584069.94 7225301.5 966.15002
584070.88 7225302 966.12
584070.88 7225302 966.08002
584071.62 7225302 966.02002
584072.31 7225302.5 966.14001
584072.31 7225302.5 966.09003
584073.06 7225302.5 966.03998
584076.69 7225303.5 965.15997
584076.69 7225303.5 965.13
584077.06 7225303.5 966.34998
584077.88 7225304 966.15002
584078.38 7225304 966.96997
584079.25 7225304 967.09998
584079.94 7225304.5 967.28998
584080.62 7225304.5 967.5
584080.62 7225304.5 967.46002
584081.25 7225304.5 967.75
584081.25 7225304.5 967.71002
584082.12 7225305 968.08002
584082.12 7225305 968.04999
584082.81 7225305 968.22998
584083.44 7225305 968.45001
584084.56 7225305.5 967.97998
584085.5 7225305.5 967.15002
584086.19 7225306 967.29999
584087.12 7225306 967.44
584087.75 7225306.5 967.59998
584087.81 7225306.5 967.58002
584090.69 7225307 965.97998
584091.31 7225307 968.78003
584092.12 7225307.5 969.15002
584092.75 7225307.5 969.47998
584093.5 7225308 969.56
584094.25 7225308 969.56
584095.19 7225308 969.59998
584095.19 7225308 969.58002
584095.94 7225308.5 969.57001
584096.62 7225308.5 969.58002
584097.56 7225309 969.59003
584098.31 7225309 969.52002
584099.06 7225309 969.52002
584099.06 7225309 969.5
584099.81 7225309.5 969.51001
584100.81 7225309.5 969.45001
584101.69 7225310 968.96997
584101.69 7225310 968.95001
584104.75 7225310.5 966.95001
584104.75 7225310.5 966.89001
584106.06 7225311 967.51001
584106.06 7225311 967.47998
584105.31 7225311 972.28998
584106.12 7225311 972.64001
584106.12 7225311 972.62
584106.81 7225311 972.85999
584106.81 7225311 972.84003
584107.5 7225311.5 973.10999
584108.31 7225311.5 973.41998
584108.31 7225311.5 973.37
584109 7225311.5 973.62
584109.69 7225312 973.83002
584110.44 7225312 973.70001
584111.5 7225312.5 973.44
584112.31 7225312.5 973.19
584113.19 7225313 972.81
584113.19 7225313 972.78003
584114.19 7225313 972.58002
584116 7225313.5 969.34998
584117.44 7225314 967.17999
584117.44 7225314 967.15997
584117.44 7225314 969.53003
584117.5 7225314 972.16998
584117.75 7225314 973.66998
584118.44 7225314 973.84003
584119.12 7225314.5 974.12
584119.94 7225314.5 974.52002
584120.69 7225314.5 974.54999
584121.44 7225315 974.47998
584122.31 7225315 974.16998
584122.31 7225315 974.15002
584123.38 7225315.5 973.81
584124.12 7225315.5 973.69
584124.19 7225315.5 973.66998
584124.88 7225316 973.70001
584126.25 7225316 971.84998
584126.44 7225316 974.17999
584126.44 7225316 976.39001
584126.38 7225316 978.88
584132.56 7225318 979.38
584133.56 7225318 979.28998
584134.25 7225318 979.57001
584137.5 7225319 972.17999
584137.56 7225319 972.15997
584138.44 7225319.5 972.45001
584139.06 7225319.5 972.63
584139.81 7225319.5 972.77002
584139.81 7225319.5 972.75
584140.5 7225320 972.98999
584141.38 7225320 973.20001
584142.19 7225320.5 972.94
584143.06 7225320.5 972.65997
584144.12 7225321 972.47998
584144.94 7225321 972.25
584144.94 7225321 972.20001
584145.81 7225321 971.96997
584146.75 7225321.5 972.13
584147.06 7225321.5 973.31
584147.94 7225321.5 972.98999
584148.75 7225322 972.78998
584149.75 7225322 972.70001
584150.56 7225322.5 972.51001
584152 7225323 970.72998
584152.75 7225323 971.27002
584153.38 7225323 971.73999
584154 7225323.5 972.17999
584154.56 7225323.5 972.60999
584154.38 7225323.5 975.31
584154.38 7225323.5 975.28998
584155.19 7225323.5 975.70001
584155.94 7225324 975.78003
584156.69 7225324 975.73999
584157.69 7225324 975.78998
584157.69 7225324 975.77002
584158.44 7225324.5 975.76001
584159.19 7225324.5 975.75
584159.25 7225324.5 975.70001
584160.19 7225325 975.77002
584160.94 7225325 975.72998
584161.75 7225325.5 975.69
584162.5 7225325.5 975.69
584162.5 7225325.5 975.66998
584163.44 7225325.5 975.75
584164.25 7225326 975.71002
584164.25 7225326 975.69
584165 7225326 975.64001
584165.19 7225326 977.16998
584165.94 7225326.5 977.81
584166.62 7225326.5 978.01001
584167.5 7225327 977.78998
584168.56 7225327 976.91998
584169.44 7225327 977.35999
584169.44 7225327.5 977.31
584170.5 7225327.5 976.5
584171.5 7225328 976.53003
584171.06 7225327.5 976.41998
584169.69 7225327 977.46002
584169.75 7225327 977.42999
584169.19 7225327 976.90002
584167.94 7225326.5 977.62
584166.94 7225326 978.25
584166 7225326 978.01001
584165.44 7225326 977.60999
584164.94 7225325.5 976.83002
584164.44 7225325.5 975.59003
584163.62 7225325.5 975.65997
584162.88 7225325 975.65002
584161.94 7225325 975.56
584161.94 7225325 975.53998
584161.19 7225324.5 975.62
584160.38 7225324.5 975.65997
584160.38 7225324.5 975.63
584159.44 7225324 975.57001
584158.69 7225324 975.60999
584157.69 7225323.5 975.58002
584157.69 7225323.5 975.56
584157.12 7225323.5 975.71997
584156.12 7225323.5 975.64001
584155.19 7225323 975.56
584154.56 7225323 975.33002
584154.69 7225323 972.73999
584154.75 7225323 972.67999
584154.12 7225323 972.26001
584154.12 7225323 972.22998
584152.94 7225322.5 973.46002
584152.31 7225322.5 972.96002
584152.19 7225322.5 970.71002
584150.75 7225322 972.52002
584150.75 7225322 972.5
584149.94 7225321.5 972.66998
584149.12 7225321.5 972.84003
584148.12 7225321 972.90002
584148.12 7225321 972.88
584147.25 7225321 973.19
584146.69 7225321 972.67999
584146 7225320.5 971.88
584145.38 7225320.5 972.19
584144.31 7225320 972.35999
584143.44 7225320 972.60999
584142.62 7225320 972.89001
584142.62 7225320 972.85999
584141.75 7225319.5 973.10999
584141.75 7225319.5 973.07001
584140.81 7225319.5 973.01001
584140.12 7225319 972.89001
584140.12 7225319 972.85999
584139.44 7225319 972.65997
584138.75 7225318.5 972.5
584137.88 7225318.5 972.21997
584134.5 7225317.5 979.84003
584133.94 7225317.5 979.22998
584133.94 7225317.5 979.21002
584133.12 7225317.5 979.39001
584133.19 7225317.5 979.34998
584132.19 7225317 979.44
584126.62 7225315.5 979.19
584126.75 7225315.5 976.52002
584126.62 7225315.5 974.03998
584126.44 7225315.5 972.39001
584125.12 7225315 973.44
584124.38 7225315 973.60999
584124.38 7225315 973.59003
584123.56 7225314.5 973.78998
584122.62 7225314.5 974.21002
584121.69 7225314 974.28998
584120.75 7225314 974.29999
584120 7225314 974.25
584119.31 7225313.5 974.14001
584118.62 7225313.5 973.84003
584117.75 7225313 973.58002
584117.56 7225313 971.34003
584117.69 7225313 968.70001
584114.75 7225312.5 972.52002
584113.75 7225312 972.64001
584113.75 7225312 972.62
584112.94 7225312 973
584112.94 7225312 972.97998
584112.06 7225311.5 973.35999
584111.19 7225311.5 973.71997
584111.19 7225311.5 973.70001
584110.12 7225311 973.98999
584110.12 7225311 973.96997
584109.5 7225311 973.76001
584109.5 7225311 973.70001
584108.62 7225311 973.42999
584107.81 7225310.5 973.13
584107.12 7225310.5 972.92999
584107.12 7225310.5 972.89001
584106.31 7225310 972.59003
584105.62 7225310 972.42999
584105.62 7225310 972.40997
584106.38 7225310 967.56
584105 7225310 966.72998
584101.81 7225309 969.13
584100.88 7225309 969.09998
584100.31 7225308.5 969.25
584099.31 7225308.5 969.16998
584099.38 7225308.5 969.15002
584098.62 7225308 969.21002
584097.69 7225308 969.15997
584096.94 7225308 969.19
584096.19 7225307.5 969.21997
584095.25 7225307.5 969.16998
584095.25 7225307.5 969.15002
584094.5 7225307 969.21002
584093.75 7225307 969.21997
584093 7225306.5 969.21997
584092.31 7225306.5 969.09003
584091.5 7225306.5 968.65002
584090.94 7225306 965.62
584087.94 7225305.5 967.64001
584087.06 7225305 967.38
584086.38 7225305 967.31
584085.69 7225305 967.12
584084.94 7225304.5 967.04999
584084.94 7225304.5 967.02002
584082.69 7225304 966.66998
584081.75 7225304 966.65997
584080.94 7225303.5 966.83002
584080.19 7225303.5 966.88
584079.25 7225303 966.95001
584078.5 7225303 967.09998
584078.5 7225303 967.07001
584078.38 7225303 964.92999
584077.25 7225302.5 965.59003
584077.25 7225302.5 965.56
584076.56 7225302.5 965.29999
584076.62 7225302.5 965.26001
584075.94 7225302 964.38
584074 7225301.5 966.09003
584073.19 7225301.5 966.21002
584072.25 7225301.5 966.17999
584071.56 7225301 966.17999
584071.56 7225301 966.15002
584070.62 7225301 966.13
584069.88 7225300.5 966.17999
584069.19 7225300.5 966.20001
584068.44 7225300.5 966.19
584068.44 7225300.5 966.15997
584067.5 7225300 966.17999
584066.75 7225300 966.20001
584066.75 7225300 966.17999
584065.88 7225299.5 966.15002
584065.12 7225299.5 966.20001
584064.38 7225299 966.20001
584064.38 7225299 966.15997
584063.5 7225299 966.16998
584063.5 7225299 966.13
584062.75 7225299 966.20001
584062.75 7225299 966.15002
584061.81 7225298.5 966.15002
584061.12 7225298.5 966.17999
584060.38 7225298 966.21002
584059.5 7225298 965.89001
584056.31 7225297 963.52002
584055.62 7225296 963.15997
584056.25 7225296 963.71002
584057.94 7225296.5 963.47998
584058.56 7225296.5 963.78003
584059.56 7225297 963.65002
584060.19 7225297 966.01001
584061 7225297 966.34998
584061.69 7225297.5 966.51001
584062.62 7225297.5 966.57001
584063.31 7225298 966.52002
584064.06 7225298 966.53003
584064.81 7225298 966.5
584064.81 7225298 966.47998
584065.75 7225298.5 966.53003
584066.44 7225298.5 966.53003
584067.19 7225299 966.53998
584067.94 7225299 966.57001
584067.94 7225299 966.53003
584068.81 7225299 966.59003
584068.81 7225299 966.56
584069.56 7225299.5 966.53003
584070.31 7225299.5 966.51001
584071.25 7225300 966.58002
584071.94 7225300 966.54999
584072.69 7225300 966.46997
584073.5 7225300.5 966.15002
584074.5 7225300.5 965.98999
584078.62 7225302 965.19
584078.81 7225302 967.03003
584079.75 7225302 966.92999
584080.5 7225302 966.83002
584081.31 7225302.5 966.76001
584082.25 7225302.5 966.65997
584083.06 7225303 966.37
584083.88 7225303 966.16998
584084.62 7225303.5 966.16998
584084.62 7225303.5 966.14001
584085.5 7225303.5 966.40997
584086 7225303.5 967.14001
584086.69 7225304 967.34003
584087.56 7225304 967.40997
584088.25 7225304 967.58002
584091.19 7225305 965.84003
584091.25 7225305 965.81
584105.19 7225308.5 967.03003
584106.5 7225309 967.60999
584106.5 7225309 967.59003
584105.75 7225308.5 972.34998
584105.75 7225308.5 972.32001
584106.44 7225309 972.58002
584107.31 7225309 972.84998
584107.94 7225309.5 973.09998
584108 7225309.5 973.07001
584108.62 7225309.5 973.33002
584108.62 7225309.5 973.31
584109.5 7225309.5 973.59003
584110.12 7225310 973.85999
584110.94 7225310 973.70001
584112 7225310.5 973.40002
584112.81 7225310.5 973.07001
584113.69 7225311 972.73999
584114.5 7225311 972.44
584116.5 7225311.5 969.28998
584117.75 7225312 969.96002
584117.75 7225312 972.31
584118 7225312 974.53003
584118.62 7225312 974.78998
584118.62 7225312 974.76001
584119.44 7225312 974.72998
584120.38 7225312.5 974.76001
584120.38 7225312.5 974.71002
584121.06 7225312.5 974.78998
584121.81 7225313 974.81
584122.75 7225313 974.85999
584123.5 7225313.5 974.82001
584124.25 7225313.5 974.82001
584125.88 7225314 972.23999
584127.06 7225314 970.84998
584127 7225314 974.08002
584126.94 7225314 976.39001
584126.88 7225314 978.87
584126.88 7225314 978.83002
584127.69 7225314.5 979.29999
584128.38 7225314.5 979.37
584129.12 7225314.5 979.46002
584130 7225315 979.65997
584130 7225315 979.60999
584130.69 7225315 979.72998
584131.5 7225315.5 979.59003
584132.31 7225315.5 979.46002
584132.31 7225315.5 979.42999
584133.31 7225316 979.38
584133.88 7225316 979.16998
584134.69 7225316 979.77002
584138 7225317 972.17999
584138.94 7225317 972.40997
584139.56 7225317.5 972.64001
584140.25 7225317.5 972.79999
584141.12 7225318 973.08002
584141.88 7225318 973.09998
584142.75 7225318 972.84003
584143.62 7225318.5 972.58002
584143.62 7225318.5 972.56
584144.44 7225318.5 972.34998
584145.31 7225319 972.04999
584146.38 7225319 971.87
584147.12 7225319.5 971.85999
584148.06 7225319.5 971.84998
584148.06 7225319.5 971.82001
584148.88 7225320 971.71997
584149.69 7225320 971.64001
584150.5 7225320 971.53003
584150.5 7225320 971.48999
584151.5 7225320.5 971.44
584151.81 7225320.5 972.59998
584152.56 7225321 972.60999
584153.56 7225321 972.63
584154.31 7225321 972.62
584155.06 7225321.5 972.62
584155.06 7225321.5 974.83002
584155.75 7225321.5 975.65002
584156.44 7225322 975.71002
584157.25 7225322 975.64001
584157.25 7225322 975.60999
584158.25 7225322 975.65002
584158.25 7225322 975.63
584159 7225322.5 975.63
584159 7225322.5 975.60999
584159.75 7225322.5 975.59998
584160.5 7225323 975.60999
584161.5 7225323 975.65002
584162.75 7225323.5 974.25
584163.94 7225323.5 973.14001
584164.81 7225324 972.83002
584164.88 7225324 972.81
584165.88 7225324 972.73999
584165.88 7225324 972.71997
584166.06 7225324 974.26001
584165.69 7225324 977.23999
584166.44 7225324.5 977.87
584166.88 7225324.5 978.76001
584167.62 7225324.5 978.78003
584168.38 7225325 978.84998
584170 7225325 977.14001
584170.75 7225325.5 977.21997
584172.19 7225326 975.42999
584171.62 7225325 976.47998
584170.5 7225325 977.34003
584170.5 7225325 977.32001
584169.5 7225324.5 977.37
584169.5 7225324.5 977.34003
584168 7225324 978.73999
584167.25 7225324 978.78998
584167.25 7225324 978.77002
584166.62 7225324 978.34003
584166.06 7225323.5 977.19
584166.12 7225323.5 977.14001
584166.31 7225323.5 974.52002
584166.06 7225323.5 972.65002
584166.06 7225323.5 972.62
584165.06 7225323.5 972.75
584164.38 7225323 973.12
584163.25 7225323 973.45001
584163.25 7225323 973.40002
584161.56 7225322.5 975.91998
584160.62 7225322 975.88
584159.88 7225322 975.90002
584159.88 7225322 975.87
584159.12 7225322 975.89001
584159.12 7225322 975.87
584158.12 7225321.5 975.88
584158.12 7225321.5 975.85999
584157.38 7225321.5 975.88
584156.44 7225321 975.82001
584155.62 7225321 975.89001
584155.69 7225321 975.84998
584155.19 7225321 975.02002
584155.25 7225321 972.65997
584155.31 7225321 972.62
584154.5 7225320.5 972.64001
584153.75 7225320.5 972.62
584152.81 7225320 972.56
584152 7225320 972.63
584151.5 7225320 971.39001
584150.88 7225319.5 971.57001
584149.88 7225319.5 971.60999
584149.12 7225319 971.70001
584148.31 7225319 971.79999
584148.31 7225319 971.76001
584147.5 7225319 971.87
584147.5 7225319 971.84003
584146.62 7225318.5 971.70001
584145.75 7225318.5 972.03998
584144.69 7225318 972.25
584144.06 7225318 972.56
584144.06 7225318 972.53003
584143 7225317.5 972.67999
584142.19 7225317.5 972.96997
584141.38 7225317 973.09998
584140.69 7225317 972.89001
584140.69 7225317 972.85999
584140 7225317 972.72998
584140 7225317 972.71002
584139.12 7225316.5 972.45001
584138.44 7225316.5 972.28998
584138.44 7225316.5 972.25
584135.06 7225315.5 979.85999
584134.5 7225315.5 979.21997
584133.56 7225315 979.27002
584132.75 7225315 979.39001
584132 7225314.5 979.53998
584131.12 7225314.5 979.75
584131.12 7225314.5 979.72998
584130.25 7225314 979.63
584129.5 7225314 979.52002
584128.81 7225314 979.41998
584127.94 7225313.5 979.27002
584127.06 7225313.5 979.59998
584127.06 7225313.5 976.77002
584127.12 7225313.5 974.29999
584127.25 7225313.5 971.83002
584127.25 7225313.5 971.81
584126.25 7225313 972.5
584126.25 7225313 972.47998
584124.56 7225312.5 974.59003
584123.88 7225312.5 974.47998
584123 7225312.5 974.37
584123 7225312.5 974.34998
584122.19 7225312 974.47998
584121.31 7225312 974.26001
584120.56 7225311.5 974.41998
584119.81 7225311.5 974.37
584118.88 7225311 974.35999
584118.12 7225311 974.39001
584118.12 7225311 974.37
584117.19 7225311 974.39001
584117.19 7225311 974.34998
584116.44 7225310.5 974.31
584116.31 7225310.5 971.84003
584116.38 7225310.5 969.27002
584114.38 7225310 972.54999
584114.38 7225310 972.5
584113.56 7225310 972.84003
584112.69 7225309.5 973.28998
584112.69 7225309.5 973.22998
584111.62 7225309.5 973.54999
584111.62 7225309.5 973.51001
584110.81 7225309 973.92999
584109.94 7225309 973.70001
584109.94 7225309 973.65997
584109.25 7225308.5 973.44
584108.38 7225308.5 973.21002
584107.75 7225308.5 972.91998
584106.88 7225308 972.63
584106.25 7225308 972.38
584106.62 7225308 968.12
584106.62 7225308 968.09003
584105.25 7225307.5 967.22998
584105.25 7225307.5 967.16998
584104.06 7225307.5 966.28003
584103.12 7225307 966.21002
584103.12 7225307 966.19
584091.44 7225304 965.51001
584091.44 7225304 965.48999
584084.62 7225302 967.20001
584084.62 7225302 967.17999
584083.12 7225302 966.59998
584082.38 7225301.5 966.65997
584082.44 7225301.5 966.64001
584081.62 7225301.5 966.78003
584080.69 7225301 966.84003
584079.94 7225301 966.96002
584079.94 7225301 966.94
584079 7225300.5 966.96002
584078.88 7225300.5 964.75
584074.69 7225299.5 965.96997
584073.69 7225299.5 966.15002
584072.88 7225299 966.52002
584071.88 7225299 966.84003
584071.06 7225298.5 966.98999
584071.12 7225298.5 966.96997
584070.38 7225298.5 967
584069.44 7225298 967
584069.44 7225298 966.95001
584068.69 7225298 966.97998
584068 7225298 967.02002
584067.25 7225297.5 967.03998
584066.31 7225297.5 967.03998
584066.31 7225297.5 967.01001
584065.56 7225297 967.03003
584064.69 7225297 966.98999
584063.94 7225296.5 967.02002
584063.06 7225296.5 966.90997
584062.38 7225296.5 966.71997
584062.38 7225296.5 966.70001
584061.75 7225296 966.48999
584060.88 7225296 966.17999
584060.25 7225295.5 965.92999
584057 7225295 963.65997
584056.12 7225294.5 963.47998
584049.19 7225291 967.01001
584057 7225293 963.56
584061.06 7225294 966.09998
584061.75 7225294 966.28003
584062.38 7225294.5 966.53003
584062.38 7225294.5 966.51001
584063.06 7225294.5 966.75
584063.94 7225295 967.06
584064.56 7225295 967.27002
584065.25 7225295 967.53003
584066.19 7225295.5 967.54999
584066.88 7225295.5 967.53003
584066.88 7225295.5 967.51001
584067.62 7225295.5 967.51001
584068.38 7225296 967.47998
584069.25 7225296 967.53003
584069.25 7225296 967.5
584070 7225296.5 967.52002
584070.75 7225296.5 967.47998
584071.75 7225297 967.19
584072.56 7225297 966.84998
584073.38 7225297 966.53998
584073.38 7225297 966.51001
584074.25 7225297.5 966.13
584075.19 7225297.5 966.08002
584076.62 7225298 966.10999
584077.56 7225298.5 966.15002
584077.56 7225298.5 966.13
584078.25 7225298.5 966.16998
584078.25 7225298.5 966.15002
584078.94 7225298.5 966.39001
584079.5 7225299 967.04999
584080.44 7225299 967.08002
584080.44 7225299 967.02002
584081.19 7225299 966.92999
584082.19 7225299.5 966.82001
584082.69 7225299.5 966.71002
584083.69 7225300 966.56
584084.25 7225300 967.27002
584084.88 7225300 967.67999
584085.5 7225300.5 967.90002
584086.31 7225300.5 968.46997
584091.62 7225302 966.73999
584091.62 7225302 966.71002
584092.25 7225302 967.08002
584093.12 7225302.5 966.59003
584105.75 7225305.5 966.83002
584107 7225306 965.87
584107.19 7225306 967.65997
584106.44 7225306 972.33002
584107.31 7225306 972.57001
584107.94 7225306 972.82001
584108.62 7225306.5 973.07001
584109.5 7225306.5 973.35999
584109.5 7225306.5 973.33002
584110.06 7225306.5 973.27002
584111 7225307 973.35999
584111.69 7225307 973.35999
584111.75 7225307 973.33002
584112.44 7225307.5 973.41998
584112.44 7225307.5 973.40002
584113.5 7225307.5 973.12
584114.31 7225308 972.78003
584114.31 7225308 972.75
584115.19 7225308 972.44
584116.94 7225308.5 969.96997
584116.94 7225308.5 972.32001
584116.94 7225308.5 972.28998
584117.12 7225308.5 973.88
584118.12 7225309 973.82001
584118.69 7225309 973.71997
584119.62 7225309 973.79999
584120.38 7225309.5 973.79999
584121.12 7225309.5 973.75
584122.12 7225310 973.71002
584122.12 7225310 973.69
584122.81 7225310 973.85999
584123.56 7225310 973.84003
584124.5 7225310.5 973.89001
584124.5 7225310.5 973.85999
584125.19 7225310.5 974.07001
584126.75 7225311 972.16998
584127.62 7225311.5 971.15997
584127.56 7225311 973.62
584127.69 7225311.5 976.16998
584127.62 7225311.5 978.58002
584127.62 7225311.5 978.54999
584128.12 7225311.5 979.22998
584129 7225311.5 979.42999
584129.06 7225311.5 979.39001
584129.75 7225312 979.47998
584130.5 7225312 979.53003
584131.19 7225312 979.71002
584131.19 7225312 979.65002
584132.19 7225312.5 979.59998
584132.94 7225312.5 979.44
584133.75 7225313 979.26001
584134.75 7225313 979.21997
584135.25 7225313 979.81
584138.62 7225314 972.23999
584138.69 7225314 972.19
584139.56 7225314.5 972.44
584140.19 7225314.5 972.67999
584140.94 7225314.5 972.81
584141.56 7225315 973.06
584141.62 7225315 973.03003
584142.38 7225315 972.95001
584143.44 7225315.5 972.78998
584144.25 7225315.5 972.52002
584145.31 7225316 972.34003
584146.12 7225316 972.10999
584146.12 7225316 972.07001
584146.94 7225316.5 971.89001
584147 7225316.5 971.87
584147.75 7225316.5 971.87
584148.56 7225316.5 971.71002
584149.56 7225317 971.65002
584150.31 7225317 971.58002
584151.31 7225317.5 971.59003
584151.88 7225317.5 971.40997
584151.88 7225317.5 971.39001
584152.5 7225317.5 972.58002
584153.19 7225318 972.69
584153.88 7225318 972.84998
584154.81 7225318.5 972.97998
584155.5 7225318.5 973.09003
584156 7225318.5 974.57001
584155.81 7225318.5 976.56
584156.75 7225319 976.71002
584157.5 7225319 976.71997
584158.25 7225319 976.65002
584159.19 7225319.5 976.76001
584159.25 7225319.5 976.72998
584160 7225319.5 976.73999
584160.75 7225320 976.73999
584161.69 7225320 976.77002
584162.44 7225320.5 976.89001
584164.56 7225321 973.13
584165.62 7225321 972.92999
584166.5 7225321.5 972.71997
584166.5 7225321.5 972.67999
584166.75 7225321.5 976.03998
584167.75 7225321.5 975.97998
584167.81 7225321.5 975.94
584168.62 7225322 975.78998
584169.19 7225322 976.29999
584169.88 7225322 976.57001
584170.69 7225322.5 976.92999
584171.44 7225322.5 977.07001
584172.12 7225323 977.21002
584173.12 7225323 977.16998
584172.38 7225322.5 977.21002
584172.38 7225322.5 977.19
584171.69 7225322.5 977.10999
584170.81 7225322 976.83002
584170.12 7225322 976.63
584169.25 7225322 976.26001
584168.06 7225321.5 977.46997
584167.62 7225321.5 976.09998
584166.75 7225321 976.32001
584166.75 7225321 976.28003
584166.38 7225321 972.64001
584166.38 7225321 972.62
584165.5 7225321 972.90002
584165.5 7225321 972.88
584164.44 7225320.5 973.20001
584162.31 7225320 976.95001
584161.31 7225320 976.85999
584161.38 7225320 976.83002
584160.56 7225319.5 976.88
584159.81 7225319.5 976.89001
584158.88 7225319 976.82001
584158.88 7225319 976.79999
584158.12 7225319 976.83002
584157.31 7225318.5 976.85999
584156.38 7225318.5 976.78998
584155.88 7225318.5 976.03998
584155.81 7225318.5 973.58002
584155.31 7225318 972.85999
584154.62 7225318 972.76001
584153.88 7225318 972.67999
584153.12 7225317.5 972.63
584152.19 7225317.5 972.48999
584151.81 7225317.5 971.46997
584151 7225317 971.57001
584150.25 7225317 971.59003
584149.44 7225316.5 971.70001
584149.44 7225316.5 971.65997
584148.44 7225316.5 971.77002
584147.69 7225316 971.81
584146.88 7225316 971.87
584146 7225316 972.09998
584145 7225315.5 972.31
584144.12 7225315.5 972.63
584144.12 7225315.5 972.59003
584143.31 7225315 972.83002
584142.44 7225315 973.07001
584142.44 7225315 973.04999
584141.69 7225314.5 973.07001
584140.81 7225314.5 972.82001
584140.81 7225314.5 972.79999
584140.12 7225314 972.63
584140.12 7225314.5 972.60999
584139.44 7225314 972.42999
584139.44 7225314 972.40002
584138.75 7225314 972.23999
584138.75 7225314 972.21997
584135.19 7225313 979.73999
584134.62 7225313 979.19
584133.88 7225312.5 979.32001
584133.06 7225312.5 979.47998
584132.06 7225312 979.58002
584131.25 7225312 979.71997
584130.56 7225312 979.58002
584129.62 7225311.5 979.45001
584129.69 7225311.5 979.40997
584128.94 7225311.5 979.33002
584128.94 7225311.5 979.29999
584128.19 7225311 979.31
584127.75 7225311 978.46002
584127.75 7225311 978.44
584127.62 7225311 976
584127.62 7225311 975.94
584127.69 7225311 973.53998
584127.62 7225311 970.96002
584127.62 7225311 970.94
584126.62 7225310.5 971.59998
584125.12 7225310.5 973.89001
584124.25 7225310 973.71997
584123.5 7225310 973.73999
584122.75 7225309.5 973.71997
584121.81 7225309.5 973.65002
584121.81 7225309.5 973.63
584121.06 7225309.5 973.72998
584120.12 7225309 973.66998
584119.44 7225309 973.53998
584118.62 7225308.5 973.71002
584117.69 7225308.5 973.59003
584117.75 7225308.5 973.54999
584116.88 7225308 973.33002
584116.88 7225308 973.28003
584117 7225308 970.70001
584115.44 7225308 972.46997
584114.62 7225307.5 972.67999
584113.81 7225307.5 973.04999
584112.81 7225307 973.17999
584112.06 7225307 973.19
584111.12 7225306.5 973.19
584111.12 7225306.5 973.15997
584110.38 7225306.5 973.15997
584109.44 7225306 973.12
584108.75 7225306 973.09998
584108.06 7225306 972.89001
584107.25 7225305.5 972.53998
584106.56 7225305.5 972.31
584107.25 7225305.5 967.13
584106.94 7225305.5 965.84003
584106.94 7225305.5 965.82001
584105.81 7225305.5 966.28998
584105.81 7225305.5 966.27002
584104.31 7225305 965.62
584103.62 7225304.5 965.56
584103.62 7225304.5 965.52002
584093 7225302 966.90997
584092.19 7225301.5 966.46002
584091.25 7225301.5 967.02002
584085.94 7225300 968.75
584086 7225300 968.71002
584085.44 7225300 968.06
584084.75 7225300 967.89001
584084 7225299.5 967.23999
584083.31 7225299.5 966.97998
584082.56 7225299 967.04999
584079.38 7225298.5 966.59998
584079.38 7225298.5 966.57001
584078.75 7225298 966.16998
584078.81 7225298 966.14001
584078 7225298 966.22998
584078.06 7225298 966.21002
584077.12 7225298 966.16998
584076.38 7225297.5 966.19
584074.75 7225297 966.03998
584073.94 7225297 966.41998
584073.12 7225296.5 966.71997
584072.25 7225296.5 967.09003
584071.25 7225296 967.35999
584071.25 7225296 967.34003
584070.25 7225296 967.65997
584069.56 7225296 967.67999
584068.81 7225295.5 967.70001
584068.06 7225295.5 967.73999
584067.12 7225295 967.71997
584066.44 7225295 967.71997
584065.5 7225294.5 967.62
584064.88 7225294.5 967.33002
584064.25 7225294.5 967.13
584064.25 7225294.5 967.09003
584063.38 7225294 966.84003
584062.75 7225294 966.59003
584061.88 7225294 966.29999
584061.19 7225293.5 966.08002
584057.12 7225292.5 963.57001
584049.5 7225287 969.96002
584050.12 7225287.5 970.28003
584050.94 7225287.5 970.03998
584050.94 7225287.5 970.02002
584051.88 7225288 969.21997
584052.88 7225288 968.90002
584058.06 7225289.5 963.53998
584058.75 7225289.5 963.63
584062 7225290.5 966.04999
584062.81 7225290.5 966.37
584063.5 7225291 966.57001
584064.31 7225291 966.90002
584065 7225291 967.10999
584065.62 7225291.5 967.29999
584066.5 7225291.5 966.92999
584067.44 7225292 966.78998
584067.44 7225292 966.77002
584068.19 7225292 966.62
584068.94 7225292 966.59998
584069.69 7225292.5 966.66998
584069.69 7225292.5 966.62
584070.56 7225292.5 966.67999
584070.62 7225292.5 966.65002
584071.31 7225293 966.60999
584072.06 7225293 966.56
584073 7225293.5 966.62
584073.75 7225293.5 966.58002
584074.5 7225293.5 966.53003
584075.31 7225294 966.16998
584076.31 7225294 965.79999
584076.88 7225294.5 966.53003
584077.56 7225294.5 966.53003
584078.31 7225294.5 966.5
584079.25 7225295 966.54999
584080 7225295 966.53998
584080.69 7225295.5 966.58002
584080.69 7225295.5 966.53998
584085.31 7225296.5 967.16998
584085.31 7225296.5 967.15002
584086 7225296.5 967.28003
584086.69 7225297 967.48999
584087.75 7225297 967.20001
584088.62 7225297.5 966.56
584088.69 7225297.5 966.52002
584093.56 7225298.5 966.29999
584094 7225298.5 967.22998
584094.75 7225299 967.25
584094.75 7225299 967.21002
584095.69 7225299 967.21002
584096.38 7225299.5 967.41998
584097.12 7225299.5 967.41998
584097.81 7225299.5 967.44
584098.75 7225300 967.5
584099.5 7225300 967.51001
584100.25 7225300.5 967.53003
584100.25 7225300.5 967.47998
584101 7225300.5 967.5
584101.75 7225300.5 967.44
584102.69 7225301 967.47998
584103.62 7225301 967.51001
584103.62 7225301 967.48999
584104.38 7225301.5 967.46002
584105.06 7225301.5 967.46997
584105.81 7225302 967.51001
584106.56 7225302 967.46997
584107.06 7225302 968.96997
584107.75 7225302.5 969.02002
584107.81 7225302.5 968.98999
584108.56 7225302.5 968.91998
584109.5 7225302.5 968.96997
584110.25 7225303 969.01001
584111 7225303 968.96002
584111 7225303 968.94
584111.75 7225303.5 968.91998
584112.69 7225303.5 968.98999
584113.44 7225303.5 968.94
584117.69 7225305 967.98999
584124 7225306.5 968.84003
584125.19 7225307 967.40997
584125.94 7225307 967.5
584126.62 7225307 967.62
584127.5 7225307.5 967.89001
584127.5 7225307.5 967.85999
584127.62 7225307.5 969.72998
584127.62 7225307.5 972.14001
584128.44 7225307.5 971.81
584128.62 7225307.5 974.23999
584128.56 7225307.5 976.60999
584128.44 7225307.5 979.21002
584128.44 7225307.5 979.19
584129.12 7225308 979.28003
584129.19 7225308 979.25
584129.88 7225308 979.40002
584130.75 7225308 979.54999
584130.75 7225308 979.52002
584131.5 7225308.5 979.62
584132.38 7225308.5 979.79999
584133.12 7225309 979.65997
584133.94 7225309 979.51001
584134.75 7225309.5 979.33002
584135.75 7225309.5 979.28003
584136.25 7225309.5 979.90997
584140.06 7225310.5 971.14001
584140.88 7225311 970.95001
584140.88 7225311 970.92999
584141.88 7225311 970.88
584147.88 7225312.5 970.10999
584148.31 7225313 970.96002
584148.31 7225313 970.92999
584148.75 7225313 971.85999
584149.56 7225313 971.78003
584149.56 7225313 971.76001
584150.56 7225313.5 971.72998
584151.31 7225313.5 971.66998
584152.12 7225313.5 971.57001
584152.12 7225313.5 971.53998
584153.06 7225314 971.57001
584153.5 7225314 972.59003
584154.25 7225314.5 972.63
584154.94 7225314.5 972.73999
584155.69 7225314.5 972.81
584155.69 7225314.5 972.78998
584156.62 7225315 972.96002
584156.62 7225315 972.92999
584156.88 7225315 974.35999
584157.31 7225315 975.84998
584157.31 7225315 975.82001
584158.06 7225315.5 975.81
584158.81 7225315.5 975.77002
584159.81 7225315.5 975.79999
584160.56 7225316 975.77002
584160.56 7225316 975.75
584161.31 7225316 975.76001
584162.12 7225316.5 975.70001
584163.06 7225316.5 975.73999
584166.25 7225317.5 971.38
584166.69 7225317.5 972.75
584166.75 7225317.5 972.70001
584167 7225317.5 973.96002
584167.44 7225317.5 974.95001
584168 7225318 975.53998
584168.75 7225318 976.10999
584169.5 7225318 976.10999
584170.19 7225318.5 976.39001
584170.94 7225318.5 976.40002
584172 7225319 976.10999
584172.69 7225319 976.33002
584173.75 7225319.5 976.17999
584173.5 7225319.5 976.09003
584172.62 7225319 976.34998
584172.62 7225319 976.33002
584171.75 7225319 976.16998
584171.75 7225319 976.14001
584170.88 7225318.5 976.38
584169.94 7225318.5 976.32001
584169.94 7225318.5 976.29999
584169.25 7225318 976.04999
584168.31 7225318 975.90002
584167.75 7225318 975.40997
584167.25 7225317.5 974.08002
584167.31 7225317.5 974.06
584166.19 7225317.5 972.35999
584166.19 7225317.5 972.33002
584163.38 7225316.5 975.79999
584162.44 7225316.5 975.65997
584161.69 7225316 975.69
584160.94 7225316 975.70001
584160.94 7225316 975.64001
584159.94 7225316 975.73999
584159.94 7225316 975.71997
584159.19 7225315.5 975.71002
584159.19 7225315.5 975.67999
584158.19 7225315.5 975.70001
584157.44 7225315 975.71997
584156.81 7225315 975.31
584156.69 7225315 973.08002
584156 7225314.5 972.84998
584155.25 7225314.5 972.75
584154.5 7225314.5 972.66998
584153.56 7225314 972.53998
584152.88 7225314 972.38
584152.88 7225314 972.35999
584152.44 7225314 971.48999
584151.62 7225313.5 971.57001
584150.69 7225313.5 971.54999
584149.88 7225313 971.67999
584149.88 7225313 971.65997
584149.06 7225313 971.83002
584149.06 7225313 971.79999
584148.31 7225313 971.84003
584148.06 7225312.5 970.40997
584147.25 7225312.5 969.90997
584147.25 7225312.5 969.89001
584141.38 7225311 970.88
584141.38 7225311 970.83002
584140.38 7225310.5 970.94
584139.56 7225310.5 971.13
584135.88 7225309.5 979.70001
584135.25 7225309.5 979.27002
584134.5 7225309 979.32001
584133.5 7225309 979.46997
584133.5 7225309 979.45001
584132.69 7225308.5 979.56
584131.94 7225308.5 979.69
584131.94 7225308.5 979.66998
584131 7225308.5 979.56
584131 7225308.5 979.53998
584130.31 7225308 979.46002
584130.31 7225308 979.41998
584129.56 7225308 979.35999
584129.56 7225308 979.33002
584128.62 7225307.5 979.34998
584128.31 7225307.5 978.16998
584128.31 7225307.5 975.78998
584128.19 7225307.5 973.28998
584127.75 7225307.5 972.56
584127.5 7225307.5 970.98999
584127.38 7225307.5 969.10999
584127.38 7225307.5 969.09003
584126.94 7225307 967.54999
584126.94 7225307 967.53003
584126.12 7225307 967.65002
584125.25 7225307 967.33002
584124 7225306.5 968.91998
584117.69 7225305 968.04999
584113.12 7225303.5 968.84003
584112.38 7225303.5 968.91998
584112.38 7225303.5 968.90002
584111.56 7225303 968.95001
584110.62 7225303 968.95001
584109.75 7225303 968.90997
584109 7225302.5 968.96002
584108.06 7225302.5 968.88
584107.31 7225302 968.90002
584106.88 7225302 967.85999
584106.06 7225302 967.46002
584105.31 7225301.5 967.46997
584104.56 7225301.5 967.46002
584103.62 7225301 967.41998
584103.62 7225301 967.38
584102.88 7225301 967.45001
584101.94 7225301 967.44
584101.25 7225300.5 967.47998
584100.44 7225300.5 967.51001
584100.5 7225300.5 967.48999
584099.5 7225300 967.42999
584098.81 7225300 967.46002
584098.06 7225299.5 967.47998
584098.06 7225299.5 967.46002
584097.12 7225299.5 967.41998
584096.44 7225299.5 967.35999
584095.69 7225299 967.25
584095.69 7225299 967.22998
584094.94 7225299 967.25
584094 7225298.5 967.19
584093.44 7225298.5 966.78003
584087.88 7225297 966.77002
584087.88 7225297 966.73999
584086.94 7225297 967.40002
584086.19 7225296.5 967.52002
584085.31 7225296.5 967.21002
584085.31 7225296.5 967.17999
584080 7225295 966.51001
584080 7225295 966.45001
584079.25 7225295 966.52002
584079.25 7225295 966.48999
584078.31 7225294.5 966.51001
584078.31 7225294.5 966.46997
584077.62 7225294.5 966.5
584076.88 7225294.5 966.51001
584076.12 7225294 965.88
584075.31 7225294 966.14001
584074.5 7225293.5 966.47998
584073.56 7225293.5 966.53003
584072.81 7225293 966.53003
584072.06 7225293 966.59003
584072.06 7225293 966.54999
584071.12 7225293 966.53998
584070.44 7225292.5 966.60999
584070.44 7225292.5 966.59003
584069.69 7225292.5 966.65002
584069.69 7225292.5 966.62
584068.75 7225292 966.57001
584068 7225292 966.64001
584067.25 7225292 966.69
584066.25 7225291.5 966.96997
584066.25 7225291.5 966.95001
584065.44 7225291.5 967.29999
584065.5 7225291.5 967.27002
584064.81 7225291 967.03003
584063.94 7225291 966.75
584063.31 7225290.5 966.51001
584062.44 7225290.5 966.20001
584061.81 7225290.5 965.95001
584058.38 7225289.5 963.67999
584052.25 7225288 968.90997
584051.38 7225287.5 969.65997
584050.44 7225287.5 970.40002
584049.69 7225287 969.95001
584049.06 7225287 969.46002
584049.62 7225284 968.14001
584050.19 7225284 968.71997
584050.31 7225284 971.15997
584050.31 7225284 971.12
584051.19 7225284.5 971.33002
584051.94 7225284.5 971.08002
584052.81 7225285 970.58002
584053.5 7225285 970.52002
584062.56 7225287.5 965.95001
584063.44 7225287.5 966.23999
584064.06 7225287.5 966.48999
584064.75 7225288 966.69
584065.56 7225288 967.02002
584066.25 7225288 967.23999
584066.25 7225288 967.21002
584066.81 7225288.5 967.12
584067.81 7225288.5 966.85999
584068.62 7225289 966.48999
584069.62 7225289 966.17999
584070.44 7225289.5 965.90002
584071.25 7225289.5 965.66998
584071.94 7225289.5 965.76001
584072.88 7225290 965.67999
584072.88 7225290 965.65997
584073.62 7225290 965.72998
584074.31 7225290.5 965.71002
584075.06 7225290.5 965.72998
584076 7225290.5 965.66998
584076.75 7225291 965.65997
584077.19 7225291 966.69
584078.06 7225291 966.90997
584078.06 7225291 966.88
584078.75 7225291.5 966.90997
584079.5 7225291.5 966.90002
584080.44 7225292 966.89001
584081.19 7225292 966.89001
584081.19 7225292 966.85999
584082.56 7225292.5 967.27002
584082.56 7225292.5 967.23999
584084.94 7225293 967.35999
584085.62 7225293 968.20001
584085.62 7225293 968.17999
584086.25 7225293.5 968.59003
584086.25 7225293.5 968.57001
584088.12 7225294 967.15002
584089.12 7225294 966.96002
584089.81 7225294 967.14001
584094.56 7225295.5 966.66998
584094.56 7225295.5 966.62
584095.19 7225295.5 967.71997
584095.94 7225296 967.65002
584096.69 7225296 967.69
584097.56 7225296 967.91998
584098.25 7225296.5 967.91998
584098.25 7225296.5 967.90002
584099 7225296.5 967.94
584099 7225296.5 967.91998
584099.75 7225297 967.95001
584100.69 7225297 968.03003
584100.69 7225297 968.01001
584101.44 7225297 968
584101.44 7225297 967.96997
584102.12 7225297.5 968
584103.06 7225297.5 968.07001
584103.06 7225297.5 968.04999
584103.81 7225298 968.01001
584104.56 7225298 968.03998
584104.75 7225298 970.47998
584105.25 7225298 971.34003
584105.25 7225298 971.29999
584105.75 7225298.5 972.10999
584105.75 7225298.5 972.09003
584106.25 7225298.5 972.89001
584106.94 7225298.5 973.06
584107.94 7225299 972.84003
584108.5 7225299 973.29999
584109.31 7225299 973.15002
584109.31 7225299 973.12
584110.38 7225299.5 972.67999
584111.19 7225299.5 972.52002
584112.81 7225300 969.70001
584113.62 7225300.5 969.56
584114.5 7225300.5 969.67999
584118.44 7225301.5 967.34998
584124.44 7225303 968.65997
584124.81 7225303 969.71002
584125.69 7225303.5 969.34998
584125.75 7225303.5 969.32001
584126.69 7225303.5 969.25
584127.38 7225304 969.46002
584127.88 7225304 970.23999
584129.56 7225304.5 968.09998
584130.31 7225304.5 968.03998
584131.06 7225305 968.09998
584131.81 7225305 968.03003
584132.75 7225305 968.10999
584133.5 7225305.5 968.12
584133.5 7225305.5 968.07001
584134.25 7225305.5 968.04999
584135.25 7225306 968.07001
584136 7225306 968.07001
584136 7225306 968.04999
584136.75 7225306 968.09003
584136.75 7225306 968.04999
584137.69 7225306.5 968.17999
584137.69 7225306.5 968.15002
584138.31 7225306.5 968.53998
584138.25 7225306.5 970.96002
584138.81 7225307 971.53003
584139.62 7225307 971.39001
584140.62 7225307 971.27002
584141.44 7225307.5 971.12
584142.25 7225307.5 970.95001
584142.25 7225307.5 970.91998
584143.38 7225308 969.77002
584144.12 7225308 970.41998
584144.12 7225308 970.40002
584145.56 7225308.5 968.48999
584145.56 7225308.5 968.46002
584146.31 7225308.5 968.57001
584146.94 7225309 969.46997
584148 7225309 968.59998
584148.38 7225309 969.79999
584149 7225309.5 970.66998
584149.31 7225309.5 971.97998
584150.12 7225309.5 971.88
584150.88 7225310 971.79999
584150.94 7225310 971.76001
584151.88 7225310 971.78003
584152.12 7225310 973.15002
584152.88 7225310.5 973.23999
584153.62 7225310.5 973.20001
584153.69 7225310.5 973.17999
584154.62 7225311 973.21997
584154.62 7225311 973.19
584155.38 7225311 973.14001
584156.19 7225311 973.07001
584157 7225311.5 972.97998
584157.94 7225311.5 973.09003
584157.94 7225311.5 973.03998
584158.75 7225312 972.98999
584159.5 7225312 973.03998
584160.44 7225312.5 973.06
584160.44 7225312.5 973.03998
584161.19 7225312.5 973.09003
584161.19 7225312.5 973.07001
584170.62 7225315 976.84003
584161 7225312 973.08002
584160.25 7225312 973.08002
584160.25 7225312 973.04999
584159.5 7225312 973.09003
584158.56 7225311.5 972.94
584158.56 7225311.5 972.91998
584157.75 7225311.5 972.96997
584157 7225311 972.96997
584156.25 7225311 973
584155.25 7225311 972.98999
584154.5 7225310.5 973.03003
584153.69 7225310.5 973.10999
584153.69 7225310.5 973.09003
584152.88 7225310 973.19
584152 7225310 972.96002
584151.69 7225310 971.77002
584150.88 7225309.5 971.79999
584150.94 7225309.5 971.78003
584150.06 7225309.5 971.90997
584150.12 7225309.5 971.88
584149.31 7225309 971.96997
584148.81 7225309 970.57001
584148.44 7225309 969.54999
584148 7225309 968.56
